# 3D point list with one line of data per point:
#   POINT3D_ID, X, Y, Z, R, G, B, ERROR, TRACK[] as (IMAGE_ID, POINT2D_IDX)
# Number of points: 369, mean track length: 3.8228543523379317
15849 4.0737500243573184 20.27011218512677 -47.967892676750836 0 0 0 0.47487457533713473 49 1033 50 1249 46 1204 48 844 47 1078
15848 1.8737783375901791 20.185408484549662 -47.512759123913064 0 0 0 0.72745371346817156 49 1036 50 1252 47 1085 48 851 46 1206
15847 8.9556738183666589 21.350358977002738 -49.749381343177873 0 0 0 0.69756773960031371 48 846 49 1039 46 1209 47 1081
15846 5.2027048391311572 20.777319907590503 -48.764221388475441 0 0 0 0.71850471251691528 48 848 49 1035 50 1251 46 1210 47 1082
15845 3.0488993551991106 20.500090469217877 -47.739144231936926 0 0 0 0.57630877366876199 49 1042 50 1257 48 855 46 1212 47 1089
15844 2.4035225774690741 20.632289069738441 -48.602515597661522 0 0 0 0.64546352313787581 49 1043 50 1258 47 1084 48 850 46 1213
15843 5.3197305799150527 22.480526906479515 -48.778471668475781 0 0 0 0.89472760846827148 47 1112 49 1060 50 1282 46 1238 48 768 46 1065 47 964 49 931 50 1098
15840 8.5782990788863636 24.353555301372808 -52.206429856228532 0 0 0 0.4986500042362611 47 1115 50 1286 46 1241 47 968 46 1069 49 934 50 1102
15838 9.7663114438705829 19.510649935058247 -51.267018434392256 0 0 0 0.7460397403834127 47 1163 49 1106 48 886 46 1299 48 910 49 1169 46 1383 47 1248
15837 10.273364699825702 19.86682628258292 -51.575897490903586 0 0 0 0.44405422201855221 49 1110 50 1348 47 1167 48 887 46 1301
15832 4.6852625432841055 19.885191955937611 -49.016514953282993 0 0 0 0.74792359117848328 49 1121 50 1362 46 1314 47 1176 47 1262 48 896 49 1181 46 1394 50 1455
15830 8.9349744765312717 20.852322877530096 -51.372995684447986 0 0 0 0.71815691987668151 49 1120 50 1363 46 1315 47 1179
15829 18.280918176761016 25.190384305028392 -67.037013494139828 0 0 0 0.86862424618312206 49 1117 50 1366 46 1317 47 1175 48 885
15828 3.84565828154282 20.635258371275913 -47.301920074795206 0 0 0 0.71323876299769484 49 1141 50 1383 46 1333 47 1200
15827 10.708121478196082 20.744101174081482 -53.005751986962288 0 0 0 1.2565100156888047 48 915 49 1177 50 1452 46 1391 47 1256
15826 8.7661121558432615 20.603581829174104 -49.492224232963508 0 0 0 0.38724972598413265 49 1182 50 1457 46 1396 47 1263
15825 -25.742287322351103 7.1387511140641022 -41.875914506799141 0 0 0 0.32689764320567449 48 175 50 160 47 163 49 186 46 161
15824 4.4948749674938568 18.365215718463045 -50.511714242153651 0 0 0 0.4653759084184228 49 258 50 218 49 625 47 635 48 534 47 223
15823 10.174305848301008 19.314256820014453 -50.4455060873794 0 0 0 0.51214234184143093 48 539 49 266 50 227 47 232 48 251
15822 10.266212268712845 20.132122628367409 -50.409266772254817 0 0 0 0.55226253904940792 49 296 50 255 46 253 47 259 48 268
15821 4.3122761991079717 19.620794090079642 -48.600595239348763 0 0 0 0.36863620233387523 48 289 50 268 46 274 47 274
15820 7.4266129620422978 20.425461230190496 -49.464409245813805 0 0 0 0.41650070852671783 49 332 50 283 48 298 46 284 47 296
15819 4.9781328069328765 22.657739430328082 -48.797614041177972 0 0 0 1.2584610158308658 48 380 50 374 46 359 47 371 48 378 49 400 50 368
15817 -25.436921529683616 -3.5906175065199326 -42.247212889515502 0 0 0 0.50095950084518293 48 464 49 553 47 554 50 621 46 593
15815 6.5674424578956287 21.736964027758365 -49.235174679109512 0 0 0 0.29969465885366076 49 710 50 799 47 723 48 609 46 767
15814 4.1405048498192834 18.97326196565545 -48.815851569019259 0 0 0 0.8552097173329537 49 864 50 1019 46 1182 47 899 48 706 50 719 47 1055 50 1221 47 652 48 548 49 641 47 246 50 241 46 991 46 244
15809 4.2508656870845209 19.637880772824055 -48.870160703187743 0 0 0 0.38689644653543237 49 877 50 1040 47 914 48 722
15808 3.9058857754065937 19.38097633360336 -47.689512740026998 0 0 0 2.0065305179067696 49 886 50 1046 46 1017 47 918 47 1174 48 724 49 1119 50 1358 46 1312
15806 4.6125268613239596 19.920648762866996 -48.527161592142043 0 0 0 0.61310767214200435 49 891 50 1051 46 1018 47 922 47 1073 48 728 48 837
15804 4.8449705552511917 21.446614369014849 -48.305955636718011 0 0 0 0.72981760187886346 48 759 49 921 50 1085 47 956 46 1052
15803 8.722327775973131 20.410826030273622 -50.470069960422002 0 0 0 1.0570065576414929 49 1024 50 1241 47 1070 48 721 49 881 46 1012 47 913 48 558 47 669 49 656 50 739 50 1039 46 714 46 1198
15801 1.9023723833754518 20.755943200386344 -47.433714525325932 0 0 0 1.4449351569873834 49 1049 50 1264 48 862 47 1098 48 866 46 1227
15800 4.7441714304915434 21.2142898038075 -48.004406514014832 0 0 0 0.60390524764789166 48 865 50 1267 49 1054 46 1224 47 1100
15799 7.5907181672509596 20.768077610038436 -50.681888022138729 0 0 0 0.90210520716941889 48 897 49 1123 50 1367 46 1318 47 1180
15798 10.105661371361002 23.337910790328561 -51.237077630133484 0 0 0 0.94092351813163966 49 1201 50 1481 46 1420 47 1282
15797 -2.2877100377846329 6.8462385968999389 -60.038580483063875 0 0 0 1.1657250330647519 49 1207 50 1504 47 1300 48 903 47 1239 49 1159 50 1432 46 1435 46 1376
15795 17.558708918225062 24.487726481825923 -63.84176263486701 0 0 0 1.1993188281327753 49 304 48 255 47 286 48 256 49 295 50 299 47 280 47 284 49 299 50 287 46 293 47 677 48 542 46 729 49 650 50 758 46 299
15791 4.6252649805757429 18.876452897997886 -48.269856673351356 0 0 0 0.7398000858924495 49 282 48 260 49 640 50 236 47 245 50 718 46 241 47 651 46 690 47 898
15788 0.81680965606496148 19.574737960720139 -47.467056844177726 0 0 0 0.45597580928799319 49 338 50 292 47 299 48 310 46 291
15787 2.9876451646836406 19.969549053260099 -47.956381188814504 0 0 0 0.24852514260156186 49 341 50 295 46 295 47 307 48 317
15786 3.7282414842900558 21.773190656555705 -47.946154360615253 0 0 0 0.44893117237086511 49 392 50 356 46 352 47 357 48 369
15785 5.2034265716683787 23.218852630456084 -48.679272866940224 0 0 0 1.0176107470303648 49 413 48 388 50 381 48 384
15784 -24.840210791406651 -6.0110759394515352 -41.307071859819132 0 0 0 0.59934816673862246 50 615 48 457 49 545 46 582 47 544
15783 -25.192209994182615 0.40214726384884691 -41.501594895903423 0 0 0 0.52177989448373396 49 566 50 634 47 569 48 478 46 609
15782 22.877170823875417 18.073840029787707 -63.077876197275216 0 0 0 0.21419920804437675 49 606 50 684 48 512 47 614
15781 9.8231545099409967 19.396665856403828 -50.15317728994021 0 0 0 2.0696555760426496 49 632 50 712 48 543 49 638 50 715 49 851 50 1013 47 643 46 989 47 648 48 704 49 858 46 984 47 894 48 703 46 685 48 818 49 1004 50 1216 47 897 48 820 49 1009 50 1016 46 687 46 1177 47 1049 50 1219
15774 9.0663717968086761 21.488898238181882 -50.329102238838388 0 0 0 0.49527086006342291 49 689 50 778 47 710 48 593 46 749
15773 1.7474184818846656 20.97487091321721 -47.532810965077736 0 0 0 0.37985611086231108 49 712 50 801 48 612 46 768 47 724
15772 9.0193054699594608 20.802123344123395 -50.490383545011412 0 0 0 0.83668895537251198 49 887 50 1049 46 724 47 921 48 726 47 685 48 571 49 668 50 759 50 771
15770 23.291807639105571 13.700551948149602 -64.526432865410285 0 0 0 0.72437943939547444 49 987 50 1205 46 1166 48 790
15769 22.915508622241337 20.798366637948916 -64.266755383158255 0 0 0 0.68111898045373143 49 989 50 1208 46 1169 47 1037 48 794
15768 4.5364992377638123 18.423002437156125 -50.649681390238264 0 0 0 0.44273138851997096 49 843 50 705 46 675 48 810
15767 -1.7438485538420554 3.6277917338095271 -58.73611342303824 0 0 0 0.79809797674521643 49 1093 50 1337 47 1237 48 868 49 1158 50 1431 46 1288 47 1147
15765 6.8356913190748854 20.759564215464106 -50.002145534480626 0 0 0 0.950394429790822 49 1125 50 1368 47 1185 48 899 46 1321
15764 -3.855125865472623 15.553807054482206 -56.139838234286515 0 0 0 0.99546940071312517 51 227 53 243 52 169 51 230 52 322
15763 6.9905001043222654 23.768213094509889 -49.266723179681911 0 0 0 0.66330114790958039 50 388 49 418 46 795 47 382
15762 1.5361629625621116 18.136120507571388 -50.747122708003182 0 0 0 0.6869898730530416 50 703 49 623 46 220 47 637 48 696 49 254
15761 5.6556897690359254 20.797038263086474 -48.743935761572168 0 0 0 0.81865751682415611 50 780 49 691 47 707 46 747
15760 4.115508548427715 18.852683820160063 -48.921772136791908 0 0 0 0.73225548274683727 50 1349 49 1112 47 1168 48 889 46 1302
15759 5.1110681339977209 20.405822064846831 -47.736144159644709 0 0 0 0.37551278393764409 50 1374 49 1130 47 1189 46 1325
15758 -0.17140285488145376 3.9300073273686769 -57.740169204463534 0 0 0 0.50208719890795273 53 398 54 412 51 528 52 302
15757 -23.25602693308851 -5.880424275715999 -41.883429471695813 0 0 0 0.38713038640871023 53 127 54 79 51 72 52 75
15755 -0.5114281463671142 8.4198781869799788 -57.74972220901207 0 0 0 0.39313528341964243 52 148 54 162 53 209 54 424 51 174
15754 -23.136331406049329 -9.165705152456086 -42.033275026834836 0 0 0 0.52784192992375956 53 359 54 369 51 490 52 274
15753 -4.4785660516536252 18.543539334947553 -57.574989217247982 0 0 0 0.25278696879809293 53 508 54 581 52 424 53 429 51 748
15752 -23.195964637784858 -7.2356952122957221 -41.825695959423605 0 0 0 0.34575417985973456 54 71 53 115 51 60 52 69
15751 -22.250955140270548 -8.6662444968090213 -43.71816820935927 0 0 0 0.36910640728221583 59 69 60 40 57 33 58 65
15750 -23.063732365193495 8.9660503236626585 -43.616813867204982 0 0 0 0.52331097066832422 59 333 60 344 57 340 58 322
15749 -45.121778469373446 -1.2360178642249631 24.486232344672786 0 0 0 0.68652687080706365 68 297 69 47 70 405 66 433 68 30 66 36
15748 -40.740982614930289 14.802267348541045 15.433700224458441 0 0 0 0.47121695972828098 69 382 70 497 66 534 68 387
15747 -41.747706261178223 15.234426167108369 15.188676794219782 0 0 0 0.76467501171914731 69 384 66 539 66 797 68 389 70 500 69 209 70 151 66 175 68 562 68 147
15745 -47.347080583605305 -1.0418513808992731 20.571698793725403 0 0 0 0.64335973947778335 68 492 70 685 66 719 69 407 70 39 66 436 68 298 68 31 69 44 66 40 69 273 70 408
15742 -47.739742785072025 4.0156355308370033 16.250991659740741 0 0 0 1.3118488714463656 68 503 69 564 70 882 66 729 69 504 70 697 66 449 68 634
15741 -45.476096468509866 -6.9233378560769756 15.531348448486082 0 0 0 0.66876581078090469 68 619 70 867 66 905 68 481 69 488 70 671 66 708 69 397
15739 -46.44975667099142 -1.0425687010534008 20.668652632703651 0 0 0 0.42192164323608849 68 626 69 496 70 873 66 914 68 295 66 435 69 274 70 406
15738 -46.451501529676847 -0.80665731164455057 20.235261785098196 0 0 0 0.89245148123580154 68 726 69 497 70 1011 66 1044 68 627 70 874 66 915 69 558
15737 -46.890993165288741 4.0266683834826758 16.001007741854277 0 0 0 1.2995583662959831 69 600 70 1018 68 734 66 1049 68 787 70 1109 66 1141
15736 -46.307726121253516 -7.9753698855405872 15.212731312807602 0 0 0 0.89366322776438911 68 780 69 620 70 1102 66 1195 68 820 69 552 66 1040 69 27 70 866 66 904
15734 -42.314475415952586 12.777650850099633 14.003173143312967 0 0 0 0.51344536492260129 70 102 68 98 69 135 66 106
15733 -38.868188296181792 14.508370459611289 18.705985194315442 0 0 0 0.18056046779240167 70 158 68 159 69 233 66 183
15732 -47.415769070945309 -7.1625349921998804 14.443775557414366 0 0 0 0.23542054143702765 72 1490 73 1008 72 1153 73 783
15730 -47.053829697107318 -2.2475024747536598 20.739192850684848 0 0 0 1.5676992909817715 72 670 74 855 72 1157 73 788 73 787 75 673 75 675
15729 -42.081902058327998 14.772831013340898 13.74215397405111 0 0 0 1.5311816685702375 74 310 75 335 71 147 72 268 73 297
15728 -48.119879697092706 -1.1198216834130652 19.597478215420729 0 0 0 1.6610287914642257 74 522 75 690 71 359 72 686 73 480
15727 -41.585418469000047 14.988175186815072 13.405406148806373 0 0 0 1.2835962924982556 73 948 74 732 75 866 71 921 72 1303 73 1132 74 1228 72 1611 75 1319 74 1023
15726 -41.332450566308616 15.251641290755323 14.168398332350327 0 0 0 1.8005655052042868 72 878 74 736 73 952 71 478 72 290 73 689 75 871 71 723 74 330 75 293 74 1036
15725 -39.832472467760788 15.396316027031938 25.196714433565504 0 0 0 2.5594263673795554 74 731 75 288 71 491 75 876 72 320 73 320 74 321 75 308 71 174 74 338
15724 -42.731451188681994 17.408239389808902 12.607581677773892 0 0 0 1.3003726842922692 72 955 74 808 71 521 73 407 74 421 72 386 73 761 75 240 71 219
15722 -43.339471882326016 13.456860708898857 12.756316336731665 0 0 0 2.494670818048617 74 993 75 1289 71 699 74 1205 71 905 73 1114
15721 -42.834249584487956 14.283001068978407 12.01309757540446 0 0 0 1.9694351497099867 73 931 75 1299 71 707 72 1293 73 1123 71 914 75 1621 74 1213
15720 -42.092504815848592 14.756131050636149 13.656002603423696 0 0 0 1.5902147992150728 74 1014 75 1308 71 713 72 1300 73 940
15716 -45.610910876587134 11.97363637782632 10.547471258333523 0 0 0 0.85571437936768269 72 1261 73 896 74 969 75 1598 72 1576 74 661 75 1264
15715 -48.242613977598168 4.0713700693913921 14.749413974058211 0 0 0 1.4331591293015147 73 1299 74 1319 75 1816 71 1186 72 1980 73 1371 75 1992 72 1558 73 1212 71 878 74 938 75 1241 72 777 73 864 75 1577 72 1800 74 1507 75 2115 74 1160 72 1242 75 770
15711 -46.883818729959977 12.140943803595851 11.054692600261053 0 0 0 1.7648850179509572 74 1343 75 1834 71 1067 73 1097 72 1818
15710 -46.933962366058211 2.8135988856206016 18.613910666075704 0 0 0 0.899953898086153 73 1363 75 1984 72 1973 73 1289 72 1791 74 1419 74 1500 73 1204 74 1310 75 1809 72 2101 75 2108
15708 -47.795788603244063 11.309377117617878 14.960781067770863 0 0 0 1.8038539319697269 73 1312 74 1440 75 1999 71 1191 72 1985 73 1379 74 1516
15707 -47.100406207050327 -1.7485043062753993 20.287423823788146 0 0 0 0.22403712057988073 74 31 75 595 72 20 73 32
15706 -43.234975761785059 13.261047800564782 12.476273773335324 0 0 0 0.32099025203813281 74 269 75 392 72 232 73 255
15705 -41.492291249338948 14.859378634987026 14.082905109161329 0 0 0 1.4157602434094039 74 314 75 275 71 148 72 274 73 303 71 156 72 863 73 677
15702 -39.133946753089241 1.1123240007053592 32.846231833295626 0 0 0 1.6202106619959751 73 532 75 737 74 576 71 384 72 740
15701 -41.554990957770158 14.651185742986101 13.429771871909011 0 0 0 0.17801013615320299 74 720 75 854 72 856 73 674
15700 -38.697865746060856 14.233083379977684 17.708754484187597 0 0 0 0.43887985860698903 74 722 75 856 72 860 73 679
15699 -45.343538621071595 -0.86715151835344262 22.968020849857719 0 0 0 1.2503106998254383 74 1395 75 1963 72 1755 73 1270 74 1283 72 1952 73 1170 75 1782
15698 -48.103595865139624 -1.8679796020608723 18.997029554273617 0 0 0 0.61975452691993571 76 1188 77 624 80 1225 79 498 80 598
15697 -40.182197525408576 1.0975725023695357 30.958233192202179 0 0 0 0.46858938838018005 75 95 73 101 74 108 72 92
15696 -43.269347651373614 13.145113744497829 11.394861730856547 0 0 0 0.57244829352468551 76 989 77 986 81 974 79 1047 80 1005
15695 -43.898998296193675 18.123253983646229 11.355582234506622 0 0 0 0.3446022533635289 76 293 77 591 80 296 81 529
15694 -40.401856782802795 -0.96362894184865311 31.403973788601473 0 0 0 0.39103623075478094 76 56 77 66 79 95 80 63 81 65
15693 -47.978627888014941 1.425401046557492 17.763142289539918 0 0 0 0.48329084133420386 76 744 77 750 80 772 81 740 79 805
15692 -41.345037787210757 12.828080199778878 14.761415195009135 0 0 0 0.20774746254906426 76 982 77 938 79 1038 81 968
15691 -39.378996133833517 14.852961807220897 16.746750816331012 0 0 0 0.53828518074725706 76 1048 77 897 80 1059 81 1034 79 1114
15690 -40.452459874496483 4.2243541044223498 23.703430470320178 0 0 0 0.40718124715253995 76 1328 77 1340 80 1352 81 1340 79 861
15689 -41.238576800365486 13.523762734086876 14.48450387828081 0 0 0 0.46556826022660414 76 1463 77 1468 79 1493 80 1491 81 1482
15688 -47.098759060225426 1.7762349402156346 19.915770506646702 0 0 0 0.46233791209798875 76 1822 77 1729 79 1654 81 1740
15687 -50.333487020162721 2.6309488830682843 15.778657531624578 0 0 0 0.93008826563002722 76 2111 77 2054 79 1922 80 2063 81 2103
15686 -47.778987509636423 12.141917129835795 9.4332030212162419 0 0 0 0.80340532202137205 76 2438 77 2138 80 2144 81 2428 80 977 81 2179 76 2184
15684 -42.750607513252127 13.309131469127122 12.298665335272055 0 0 0 0.59361958278859062 76 2194 77 1860 79 1797 76 1864 80 1875 81 1879
15682 -43.782873443602881 13.813993533111985 11.334595849242371 0 0 0 1.4691099102394309 74 1207 75 1615 71 701 72 1597 73 1118
15681 -37.445383219130342 14.840964879625263 18.639819800951372 0 0 0 1.0964677808387213 76 1902 77 1902 79 1847 80 1914 79 1838 81 1921
15680 -46.504394674178066 -1.7649310808999639 20.160835544090713 0 0 0 1.0964156436967216 76 2066 77 2009 81 2065 79 1870 80 2015
15679 -47.32467611205356 -1.4654603903677534 19.33384375924102 0 0 0 0.95664181721893571 76 2069 77 2011 79 1871 80 2016
15678 -47.602947593998572 -0.72034344306134823 17.181396107298557 0 0 0 1.0216747551080696 76 2340 77 2016 76 2073 79 2075 80 2255 79 1878 80 2021 81 2067
15676 -41.121615961231157 -1.0234299937672195 30.186833491456316 0 0 0 0.55453139070929125 76 1943 77 1692 79 1611 81 1705 80 1707
15675 -47.161254849474012 -0.41566611019391386 19.120019157260806 0 0 0 0.59472221125952629 76 2343 77 2021 80 2259 79 1884 80 2025 81 2070 76 2076
15674 -47.217282442677238 2.0307123031266778 18.742617840822998 0 0 0 0.53506143710166454 76 2105 77 2048 79 1917 81 2098 80 2054
15673 -46.468693640895474 2.0063819588234804 19.605414067365658 0 0 0 0.67475159597649503 76 2106 77 2049 79 1918 80 2055 81 2099
15672 -43.37024592456342 12.740842908448968 11.288789886234296 0 0 0 0.45524277472297353 76 2190 77 2149 79 2025 80 2156
15671 -48.723068602715941 -8.2415339575758466 12.439839325485414 0 0 0 0.91491608041696493 76 2545 77 2429 81 2531 79 1853 80 2000 77 1664 79 688 80 1233 81 2052 79 1584 81 1875 79 1199 80 1679 76 2050 77 1552 76 1970
15668 -47.807233160222161 -2.2237199796709732 19.765172816663224 0 0 0 0.86315516382470814 76 2335 77 2255 81 2340 79 2067 80 2251
15667 -40.536347212533443 -0.49759405021483599 30.818801678702414 0 0 0 0.64008389240381591 74 1399 75 1967 73 1275 72 1956
15666 -47.212086236796544 2.0223621625332675 18.740648805572633 0 0 0 0.92014678397090199 76 2364 77 2284 81 2365 79 2101 80 2278
15665 -45.784099591838277 -1.0813844013475311 20.452645426831189 0 0 0 1.2256278611375708 76 2562 77 2447 81 2547 79 2211 80 2426
15664 -50.205057145893718 4.1592457700903092 13.672644619786022 0 0 0 1.0323156403793985 76 2598 77 2481 80 2461 81 2584
15663 -46.357790335340304 -1.2446339544995435 20.710614231736503 0 0 0 1.2037703818714571 76 2716 77 2587 81 2693 79 2313 80 2554
15662 -50.002936946896909 -0.51806830424634709 17.983887649510024 0 0 0 0.75474596832589069 76 2718 77 2588 80 2555 81 2694
15661 -41.157160360363896 -0.06427531941830425 33.846124793665666 0 0 0 0.7563302401099844 76 2575 77 2460 80 2436 81 2559
15660 -46.92838733915179 2.5708811845339801 17.060241293795773 0 0 0 1.4954539239988307 76 2739 77 2610 79 2338 80 2580 81 2716
15659 -46.898211830139452 -1.4342226936890976 20.175393201156322 0 0 0 0.35343167535081083 76 30 77 43 80 39 81 35
15658 -39.235373522319435 -1.5947425900759309 32.578663327433176 0 0 0 0.70186836124321161 73 48 75 630 74 47 73 42 72 24
15657 -31.802381544327268 15.798905604785489 35.338441909456982 0 0 0 0.69251998185340957 75 236 74 452 73 426 72 397
15656 -41.097943476600229 14.383941486301831 15.8750461581987 0 0 0 1.1938347978491024 76 1477 77 1484 80 1504 81 1495 79 1511
15655 -46.278801208279155 17.167432817178138 11.206910444807999 0 0 0 0.59821648004873484 76 2245 77 2210 80 2216 81 2254
15654 -40.33367007552075 -1.064119571541732 31.706757205482635 0 0 0 0.88227557279911473 76 2079 77 2022 79 1880 80 2027 81 2071
15652 -43.385372036859607 12.241358491821869 10.440719801340363 0 0 0 1.6017067095336466 76 2638 77 2525 80 2506 81 2623
15651 -37.441215042383817 16.505085085157841 18.839579792876687 0 0 0 0.37958540711448663 77 574 79 7 80 349 81 580 76 332
15650 -42.871185175121198 13.024742915503435 11.865577394275025 0 0 0 0.39282171298526214 76 984 77 937 79 1044 80 1003 81 970
15649 -38.482703523884112 16.029047391124436 17.208373676123909 0 0 0 0.22810547821407384 77 560 79 13 80 364 81 575 76 343
15648 -40.844256715800618 16.373630806860284 14.338909177360666 0 0 0 0.41450092911895509 77 564 79 8 80 353 81 583 76 338
15647 -37.390972550918626 15.205286190285223 19.107081842519268 0 0 0 0.46882982444077592 76 374 79 25 77 518 80 412 81 528
15646 -42.794858345992061 14.973091069507324 12.740797535230216 0 0 0 0.45439519802676165 77 487 79 32 80 458 81 496 76 391
15645 -37.239480068567573 14.85539811155196 19.373992446895823 0 0 0 0.41511342262054313 76 384 77 497 80 440 81 506 79 449
15644 -37.467348473207977 14.442605478325522 18.710510683347362 0 0 0 0.28499493584559421 77 475 79 480 80 469 81 483
15643 -39.339000022006374 14.815706515493577 23.033833086913546 0 0 0 0.41978693467766126 77 449 79 517 80 486 81 612
15642 -44.181341119172096 14.405452516532655 11.175339351465432 0 0 0 0.34827653641064843 77 1107 79 1081 80 1032 81 1000 76 1012
15641 -42.050777686065281 16.41538376616181 13.487415184928924 0 0 0 0.56171730349154347 76 587 79 285 80 361 81 581
15640 -44.377235442915833 13.569987092935728 10.563214619447695 0 0 0 0.42127296015494614 77 431 79 503 80 434 81 598 76 485
15639 -46.239483889363328 -1.1436975195472594 20.595122425817177 0 0 0 0.42100129178784762 76 450 79 438 80 48 81 41
15638 -48.474755648194616 -1.4150100313388663 18.304822938916892 0 0 0 0.47451757159764996 77 1078 79 719 80 700 81 682
15637 -34.547821933224604 -8.5230975456443616 29.544656482364843 0 0 0 0.28466632083692378 77 1178 79 689 80 678 81 1199
15636 -46.455880797779635 -1.3165617998478505 19.961714175444254 0 0 0 0.56420166236460212 77 686 79 725 80 705 81 683 76 681
15635 -46.156398396984905 -1.3353056303937241 20.997169430562248 0 0 0 0.43632967832234515 76 682 77 689 80 706 81 684 79 726
15634 -39.668471098525963 -1.0362031370600011 33.110905518328295 0 0 0 0.61733073917804093 77 69 79 738 80 65 81 634 80 729 81 704 79 389 76 707 76 653 77 973
15632 -50.943075063217812 2.8197210505691861 16.057095574235717 0 0 0 0.47732828474380234 77 1317 79 1310 80 1329 81 1318
15630 -32.294342219431691 8.490297493719595 35.408983839979882 0 0 0 0.47008026813960202 77 230 79 177 80 235 81 232 76 220
15628 -44.185571716371371 13.674296097708558 11.150161400807233 0 0 0 0.52317099864326944 76 998 79 1059 77 932 81 983 80 1013
15627 -43.506012274111278 14.222309052826608 10.948958013411456 0 0 0 0.49839256097159979 77 1477 79 1518 80 1509 81 1492 76 1472
15626 -42.412422744056926 14.643895725226157 11.998731155479177 0 0 0 0.4665151396162876 77 1006 79 1107 80 1054 81 1024
15625 -37.324959126184886 13.941815824093535 19.378591626737254 0 0 0 0.21644947462688902 76 1007 79 1078 80 1022 81 994 77 927
15624 -39.594396774814598 14.463031340277567 15.660526754525744 0 0 0 0.4496262310943171 76 1030 79 1101 80 1043 81 1016
15623 -37.50896343358999 14.704681989816754 18.546846238468579 0 0 0 0.43029684453121159 77 895 79 1115 80 1061 81 1031 76 1049
15622 -37.313921863348227 14.852167512523058 19.045258369393721 0 0 0 0.16537017547232058 77 1001 79 1121 80 1067 81 1042
15621 -37.526268843671794 14.897545259737567 19.519733062253575 0 0 0 0.44660652319790933 77 1052 79 1116 80 1062 81 1168 76 1198
15620 -37.383130541148176 15.19788734395066 19.090814085681529 0 0 0 0.19979955991166959 77 996 79 1134 80 1082 81 1057 76 1075
15619 -37.002966997815584 15.152267984714683 19.366850417244162 0 0 0 0.12883654744947695 77 1068 79 1135 80 1083 81 1172
15618 -39.075425405790916 15.851686938165823 16.870154667668473 0 0 0 0.4809066099954622 77 991 79 1157 80 1104 81 1080 76 1104
15617 -42.01801088479197 16.408286951168012 13.511563011245178 0 0 0 0.4443539551696003 76 1120 77 850 79 1172 80 1113 81 1093
15616 -38.970384823678806 16.263601891877062 16.518836349166243 0 0 0 0.51941358768605728 77 846 79 1179 80 1116 81 1098 76 1123
15615 -37.655336125764826 16.347276740618391 18.559855168101048 0 0 0 0.25099091020379277 77 844 79 1182 80 1120 81 1101 76 1128
15614 -31.942013398558117 15.561148981081638 33.246310271496156 0 0 0 0.44152907556304016 77 504 79 39 80 451 81 519 76 377
15613 -37.477377002802911 16.518499398335663 18.827418704274088 0 0 0 0.61685419713544187 77 843 79 1186 80 1121 81 1104 76 1131
15612 -42.539485701815138 20.623152192061564 13.860692759127071 0 0 0 0.28411158966819056 76 987 77 720 80 801 81 998
15611 -31.230402884741917 -6.751384639021877 33.018594984330477 0 0 0 0.37494173849528911 77 670 79 703 80 687 81 667 76 664
15610 -48.876439624256207 -1.1683378599496037 18.106233000760739 0 0 0 0.55003921333060846 77 1686 79 1231 79 1604 80 1700 81 1693 76 1232 77 1239 80 1256 81 1242 76 2033
15607 -41.627612901578509 -0.024748070504996986 30.143927320680813 0 0 0 0.83761970419816056 76 1260 79 763 80 1284 76 1710 77 1272 79 1625 80 1717 81 1715 77 1706 76 721 77 728 81 719 80 745
15605 -39.034245243024721 1.0467531238371577 33.091552645337984 0 0 0 0.27490395033321946 77 764 79 803 80 781 81 757 76 758
15604 -47.71811132036629 2.9516099031870513 17.149694863521479 0 0 0 0.59664360348735701 76 1309 77 1318 80 1330 81 1319 79 1317
15603 -40.357165763754793 12.743204723799741 14.987907349442182 0 0 0 0.59926455663995326 77 1856 79 1480 81 1673 80 1482 81 1470 76 1452 77 1637
15602 -44.315030000172356 13.519727005558536 11.187007183604504 0 0 0 0.77179811218792271 76 1863 77 1859 79 1796 81 1880 80 1876
15601 -44.073346416506304 13.663467897373565 9.713932070419709 0 0 0 0.71271106523806049 76 2196 79 1808 80 1878 81 1884 77 1863
15600 -44.254627499677099 14.468932637587725 10.661488541452314 0 0 0 0.52741509564982125 76 2004 79 1828 80 1894 81 1893
15599 -42.516608859753966 14.675880841635058 12.001599454937125 0 0 0 0.38411270170476114 77 1501 79 1533 80 1533 81 1516
15598 -39.18511269726892 14.870575920137293 16.54827073858829 0 0 0 0.984151141927885 76 1702 79 1537 79 1843 80 1922 81 1920 76 1504 77 1514 80 1538 81 1519 77 1899
15593 -47.594397825676545 -3.7761701294624701 19.692617621517421 0 0 0 0.65951425478782133 76 1850 77 1676 80 1690 79 1864 81 1683
15592 -39.577867207080445 0.086729347559526715 33.588653478808233 0 0 0 0.67329119104341684 77 1278 79 1262 80 1289 81 1282 76 1264
15590 -45.962520836620783 11.792124864080282 13.268603650718351 0 0 0 1.1299297485581037 76 1841 77 2131 80 2139 81 2177
15589 -45.662609629296973 15.095743234470147 9.6033749467548848 0 0 0 0.44178256336644728 76 1895 79 1837 80 1910 81 1917
15588 -43.586642168035233 17.397196905338575 11.167960179848615 0 0 0 0.4383564934275449 76 2254 77 2218 80 2229 81 2264
15587 -47.539456323781913 -1.4635364399633684 20.810945021110161 0 0 0 1.5280026201704757 76 2070 79 1874 80 2017 81 2066 76 2339 77 2012 79 2069
15586 -45.825691251590172 -0.86364726149217907 21.527960511925929 0 0 0 0.7589908709746821 77 2017 79 1879 80 2023 81 2069 76 2074
15584 -41.330787248389463 4.1695178989353083 23.021467723943861 0 0 0 0.75941068441697523 77 1760 79 1943 81 1773 76 2124 77 2069 80 2078 81 2117 80 1771 76 1760
15582 -45.409242051928665 11.780127177722301 8.8641572546646561 0 0 0 1.9155183936178057 77 2351 79 2181 79 2015 80 2349
15581 -41.194195835156926 13.870062100731776 15.340562736148435 0 0 0 1.0145183862434366 77 2366 79 2039 80 2164 80 2364 81 2444 76 2198 77 2156
15580 -39.650837203804784 14.185972447975836 16.356531502816193 0 0 0 0.44734356896885485 77 2165 79 2051 80 2176 81 2209
15579 -38.303059311950051 -6.5153920069561071 22.643633894066426 0 0 0 1.8867957968414255 77 2248 79 2059 81 2536 79 2197 80 2245 81 2056 80 2004 76 2327 77 2000
15577 -48.135278243469486 -7.1192085245898022 13.054247566807527 0 0 0 1.6148831217289561 77 2432 79 2195 76 2547 79 2057 80 2243 81 2534 76 2325 77 2245
15576 -46.660059870580561 -1.1706577102153854 20.918930923677454 0 0 0 0.65683979284848193 77 2260 79 2074 80 2256 81 2343 76 2341
15574 -38.90239232996489 -0.64436349179502517 33.342676317938071 0 0 0 0.4812717091773685 77 2027 79 1886 80 2033 81 2078 76 2085
15573 -48.73101337976685 2.5112835806558778 15.001666335304867 0 0 0 1.1462495669373756 77 2288 79 2237 81 2369 79 2108 80 2285 80 2451 81 2571 76 2371 76 2584 77 2468
15571 -47.971296446017092 2.7920986126659222 17.34527574917983 0 0 0 1.2063864333090257 76 2373 79 2242 80 2452 81 2574 77 2473 76 2590
15570 -45.162816386633189 -0.45028373166765778 21.08966348168731 0 0 0 0.41845520280490434 76 2565 79 2214 80 2429 81 2550
15569 -40.318309698934485 4.3011070589647309 23.7046219047233 0 0 0 0.8586913702118002 77 2306 79 2126 80 2301 81 2384 76 2389
15568 -49.4805674098574 11.296904593774043 14.715775077072685 0 0 0 0.88918665796631491 76 2624 77 2642 80 2610 81 2612
15567 -49.374834881858561 -1.0121443283381573 17.887183024097244 0 0 0 0.66155193919807942 79 447 80 49 79 430 79 733 80 714 81 686 76 36 77 50 77 694 76 688
15566 -40.381044104209927 -0.98931912570659519 32.042883749739481 0 0 0 0.45440360584085659 79 96 80 64 76 61 77 67 81 66
15565 -38.736224746541346 1.1076957890302441 32.950085995864164 0 0 0 0.41201693670714645 79 171 80 147 76 140 77 146
15564 -45.656970401453421 3.0546473885757561 21.504920825985462 0 0 0 1.2537734089860095 79 1319 80 815 77 1043 77 181 79 842 81 182 79 1668 81 785 76 173 76 171
15560 -41.718397720940658 21.016893489748941 14.428447910892565 0 0 0 0.43874577103460766 80 54 76 187 81 320 77 265
15559 -29.864970621955933 7.3204777042503855 37.540144488708563 0 0 0 0.23835450400968866 77 215 76 200 79 255 80 218
15558 -42.027238259584223 20.807731907587659 13.466218222417007 0 0 0 1.2206912327387944 80 83 76 203 77 275 81 341 76 193 80 60 81 329
15557 -26.471699966042042 10.177874528838679 41.140164154615825 0 0 0 0.39218279283192814 80 328 76 317 77 328 79 101 81 318
15556 -44.659074212378819 17.082099033064118 10.801727295783484 0 0 0 0.68671071034437892 79 4 80 1125 81 571 76 1566 77 836 76 1136 79 1189 81 1107 76 327 77 580 77 1499
15554 -45.713119165659492 16.427410104693212 9.7563175440161185 0 0 0 0.82187183433030164 77 555 79 314 76 342 81 567 80 368 81 577 79 304
15553 -38.985432193348238 15.851154886303814 16.582687118924323 0 0 0 0.41274254099633245 77 546 79 16 80 371 81 564 76 350
15552 -41.408790489238186 15.68384391986106 13.737142729402294 0 0 0 0.40698683426264914 79 337 80 586 81 548 76 360 77 639
15551 -42.700711700096264 15.406878546002233 12.795464922630657 0 0 0 0.33694661660890207 79 27 76 376 77 515 80 416 81 527
15550 -38.650737006707949 15.126208621033081 16.878827246757663 0 0 0 0.72860934404712785 77 514 76 381 81 525 79 26 80 413 76 0 77 520
15549 -40.250458294032022 14.966219801195907 14.944300866918409 0 0 0 0.65750176448394837 79 410 80 436 76 382 77 501 81 511
15548 -42.609347552892018 14.714800287058154 12.11217066095805 0 0 0 0.48861152898211146 79 33 80 460 81 488 76 399 77 477
15547 -37.270024470673427 13.922448672233488 19.420371946669206 0 0 0 0.3818341236333353 79 52 80 449 81 445 76 417 77 443
15546 -28.980683042932245 1.7676578498789719 42.600259032659444 0 0 0 1.1998326304709979 77 170 79 237 80 179 76 496 80 173 76 483 81 162 81 171
15545 -30.561363628433654 -0.4728542833713647 40.741696181503507 0 0 0 0.40433455774778987 77 89 79 120 76 549 80 84 81 80
15544 -26.946184785253305 10.694948271315422 40.521828888546146 0 0 0 0.47248282511172324 80 348 76 585 77 349 79 400 81 347
15543 -41.46620137401051 14.969809636681861 13.639896793411936 0 0 0 0.64463058556534647 79 439 80 495 76 647 77 492
15542 -42.486114120907729 17.435477014541611 13.026266532718164 0 0 0 0.66187724128984038 77 590 79 214 76 650 81 609 80 557
15541 -22.342229246237149 -6.5548125081522857 43.034658230872211 0 0 0 0.92717170757962986 77 672 79 705 80 689 76 666 79 1212 81 669 80 26 81 19 77 26 79 535 76 482
15538 -47.377684322323191 -2.1006286129487219 19.125281858113169 0 0 0 0.56256095210889623 79 1218 80 694 80 1248 79 712 81 1203 76 673 77 1054 77 1231
15537 -47.211635927358607 -1.4378935291676922 19.547964509213461 0 0 0 0.58842863279477564 77 685 80 702 76 680 76 29 79 721 80 38
15534 -39.789356407701959 0.035069238915865428 33.79507909915754 0 0 0 0.87584854151822344 79 766 80 750 81 731 76 728 77 737 81 724
15525 -30.177615268408619 8.7982395825256372 37.149609103682806 0 0 0 0.73569802214630786 80 1379 76 846 81 1362 77 1362
15524 -27.078095717998032 23.602376780839631 44.337897145768942 0 0 0 0.62683597416819636 80 5 76 887 81 237 77 104
15523 -30.753344358675328 23.207449607191474 40.618730095402817 0 0 0 0.50015297428845318 77 1084 76 927 77 240 80 717 76 514 81 938 80 659 81 641
15522 -42.3466968854326 20.785483557255422 13.187637973526954 0 0 0 0.47673572703878603 80 723 76 966 81 985 77 709
15521 -43.265563925431792 13.425257803945094 12.423690044447786 0 0 0 0.28700223623415388 79 1051 80 1007 81 979 76 994 77 934
15520 -44.710925466958194 13.689108317879855 10.683723169298903 0 0 0 0.36008437645644165 79 1057 80 1010 81 982 76 996 77 1131
15519 -39.537441384137473 20.181729277081178 16.983734117998289 0 0 0 0.38434783800901196 77 723 76 997 81 1039 80 823
15518 -44.644795499666152 13.711257201798324 9.8389515890428605 0 0 0 0.30495997394801488 79 1066 80 1012 81 987 76 999 77 931
15517 -45.212166516170385 14.336197165902822 9.9955990081349988 0 0 0 1.0088297767058352 79 1080 76 1011 80 1025 81 999 77 1089 76 1006 79 1077 81 993
15516 -29.998417963406808 22.033296244121118 43.950119376968345 0 0 0 0.28974178721030597 80 903 76 1021 81 1058 77 959
15515 -31.151356749656184 14.927015126167925 35.677430072413706 0 0 0 0.81966145728717454 79 1806 77 1872 76 2034 80 1891
15514 -41.349744527192698 15.11841154130944 13.759517717796863 0 0 0 0.37807299588238563 77 997 79 1130 76 1062 80 1078 81 1054
15513 -43.137622904456123 15.307488693997851 12.239905433457238 0 0 0 0.3439847828858848 79 1128 80 1075 81 1052 76 1067 77 878
15512 -41.928721972437359 15.804986397247536 13.610107467103374 0 0 0 0.67800921968108807 79 339 80 1096 76 1092 77 539 77 865 80 392 76 556 81 547
15511 -38.765313646816189 15.656625011675239 16.405074888959955 0 0 0 0.39599172551256578 79 1156 80 1100 81 1077 76 1097 77 859
15510 -43.862868166539982 17.456532638540924 11.171229204116685 0 0 0 0.25140243946532032 79 1 80 1127 76 1146 77 830 80 319 81 1115
15508 -33.948685609811456 -2.6635015171690202 37.568750306440677 0 0 0 0.8685923604094038 80 696 76 1183 81 1188 79 711 77 1071
15507 -34.229527516524087 -8.6253548588019822 30.58555643258924 0 0 0 1.1254536209725636 79 1200 80 679 79 691 76 468 77 17 76 1192 81 1169 77 1170 81 644 77 16 80 16 77 1042 81 9 80 15
15506 -31.839929050591046 14.722552532971131 35.828882355243238 0 0 0 0.36948536344979538 77 1111 76 1201 79 1488 80 1021 81 1208 80 1499
15505 -31.944511450681745 14.885945931369637 35.322007035512932 0 0 0 1.1129701674404577 79 1799 80 1887 76 1210 77 1870 76 1883 81 1898 77 1487
15500 -39.184425480796605 -6.8170408590993672 23.059362210590326 0 0 0 0.87831794782860784 79 1209 80 1239 76 1215 77 1221 76 2055 77 1671 80 1685 79 1590 81 1678 81 1225
15497 -22.168135447598601 -6.4550007079015908 42.565224873568177 0 0 0 1.0269439668992382 77 1225 79 1593 80 1242 76 1218 77 1674 80 1688 76 1836 81 1681 81 1228
15496 -47.557449041731424 -3.9118534094201447 19.72224394583429 0 0 0 0.77531382084743306 77 1227 79 1595 80 1244 81 1230 76 668 77 674 79 707 80 691 81 671 79 53 80 29 81 20 76 1220 77 28 76 17
15494 -28.758401190346074 -3.0364681620791645 42.436088254255395 0 0 0 0.70611132245187269 77 1230 79 1217 80 693 76 1224 81 1189 80 1247 81 1233 79 709 81 651 77 1046 76 672 79 527 80 562 76 502 77 31
15490 -49.559059961199601 -1.0118909492849966 17.914142141350339 0 0 0 0.93502226442567415 79 1230 80 1261 79 1235 81 1248 76 1234 77 1246
15489 -41.566360857973308 -1.1250011008363703 30.560038032770496 0 0 0 0.53167287433817056 79 1237 80 1266 81 1257 76 1241 77 1251
15488 -40.780855387041917 -1.1407988881037567 30.56309257092316 0 0 0 0.60210877821974518 79 1238 80 1267 76 1242 77 1249 81 1253
15487 -30.301938789460305 -0.16111704758714726 42.136039330168352 0 0 0 0.34621224667537714 79 1263 76 1262 80 1291 81 1277
15486 -47.940471905454245 1.4127962201840243 17.747089174904513 0 0 0 0.61483547949856998 79 1286 80 1306 81 1290 76 1276 77 1287
15485 -31.550558463610297 4.4329572714521799 34.425502459416656 0 0 0 0.88269486042089296 77 1764 80 1355 76 1331 79 1690 81 806 77 1343 79 1337 80 1775
15484 -30.743970474057978 8.7968803918096601 36.126110914433148 0 0 0 0.46204884721982292 77 1361 76 1352 79 1361 81 838
15483 -29.18256333945919 14.099588289255541 35.496001300798667 0 0 0 0.57349767131352392 77 1473 76 1470 79 1491 81 1488
15480 -40.053215770308348 14.300961682858533 16.169910332869424 0 0 0 0.30072737302585484 79 1520 80 1511 76 1478 77 1485
15479 -39.526050547697857 14.181153226849679 16.334548532999683 0 0 0 0.5718385125516271 79 1521 76 1479 77 1480 80 1512 81 1496
15478 -40.17680644488027 14.586966633560332 15.954981297410649 0 0 0 0.3236339947781714 79 1528 80 1524 76 1493 77 1496 81 1508
15477 -45.670243186230692 14.945471861443391 9.6684147912590905 0 0 0 0.64915036348582356 79 1531 80 1523 76 1496 77 1505 81 1514
15476 -42.47256887831805 15.049399510345634 12.01465378414531 0 0 0 0.50134261500946764 79 1549 80 1547 81 1532 76 1512 77 1516
15475 -40.078189508751819 14.961845429849928 14.863474264771781 0 0 0 0.23859162907001646 79 1551 80 1549 76 1515 77 1518 81 1534
15474 -31.053193024993313 15.520967462404659 33.526278634351883 0 0 0 0.97438693233280738 79 1833 76 1525 81 1932 77 1904
15473 -38.245439924069316 15.546561025338477 18.86729296800435 0 0 0 0.4725116449967901 79 1558 80 1558 81 1552 76 1534 77 1534
15472 -43.32348160356468 16.079031478060301 12.147001577887847 0 0 0 0.2609444439656784 79 1571 80 1571 76 1548 77 1540 81 1565
15471 -26.386105632085833 14.994435582327322 42.539213612962278 0 0 0 0.88116915236333593 77 1500 79 1812 80 1517 76 1610 79 2041 80 1899 81 2046 77 1881 79 1499 76 1042 81 486 81 1513
15469 -29.211769821023982 8.2770970593093924 37.189019785318685 0 0 0 0.59977140724808198 77 1357 76 1617 80 1374 81 1355
15466 -29.642278525828463 9.5250455181848643 35.840295912529349 0 0 0 0.30164465274914254 85 1209 84 1049 82 1314
15465 -29.3610442162217 1.7997280544718413 40.181881033764363 0 0 0 0.66819413767194735 85 1138 84 957 83 876
15464 -16.819333267323859 55.791665440923232 164.21999039635131 0 0 0 0.2503751346674753 85 490 84 841
15463 -11.911259774114844 30.125324542653871 159.15026736434123 0 0 0 0.54934483223889452 83 711 85 410 84 779 83 354 82 396
15462 -42.848854749960644 12.09264912271893 22.041728567474358 0 0 0 0.54757324763889892 85 394 84 437 83 718
15461 -32.468939603752339 -17.873439521511653 40.788116763944657 0 0 0 0.37355890576750334 85 4 84 12 83 8
15459 -29.538036769026498 8.7600822557959592 36.944901938483866 0 0 0 1.9400949545516175 84 1713 85 1973 82 2148 83 1634
15456 -27.494091449602664 -9.0296787159812641 42.22886616512784 0 0 0 0.86886356803259224 85 1934 83 1596 84 1671
15455 -31.152111113543622 -8.1569891162906227 34.202785535890939 0 0 0 0.0030650919207702186 84 1670 83 1595
15454 -28.758030806305069 10.559254446442942 35.429185993432007 0 0 0 1.1482703723400891 84 1667 85 1910 83 1574
15452 -30.216829309022366 7.2687622958947591 31.332301120811092 0 0 0 0.7016694258806 84 1648 83 1555
15451 -34.621512950679197 3.2458693615426499 35.257503395349588 0 0 0 0.41662422847156183 84 1641 85 1885 83 1547
15450 -33.042091793215974 0.53711948857819825 38.471023380409839 0 0 0 0.76080040615005684 85 1870 83 1531 84 1690
15449 -30.818653298121848 11.737642519767329 35.964504282704411 0 0 0 0.23453712248996378 84 1581 83 1483
15448 -32.902829566247533 0.36093175608044403 38.287383635467208 0 0 0 0.78232146744742315 84 1522 83 1428 85 1770
15447 -31.843370902743814 -0.14550345008328172 41.545653364458204 0 0 0 0.87279700817765327 84 1516 85 1768 83 1425 82 1946
15446 -31.242674174739676 -0.66848770012690273 40.273840624898988 0 0 0 1.3817675452646663 84 1511 85 1761 82 1941 83 1421
15445 -29.454598394016624 10.188311176118553 37.411892973926001 0 0 0 0.6840960223586201 84 1454 83 1358 85 1685 82 1852
15444 -31.20966645648981 8.8867449339002285 34.870761211459865 0 0 0 0.29477006644320347 85 1668 83 1346
15440 -25.671414651959271 9.8448286723676777 41.704644546738372 0 0 0 0.49313394271298555 84 1275 85 1489 83 1185
15438 -30.061028819846538 1.1292923863584137 41.007798709142492 0 0 0 0.4476216749411594 84 1202 85 1420 83 1118
15437 -32.077505834512856 1.1786142809776676 39.288047549359874 0 0 0 0.47445892496426212 84 1200 85 1419 82 1562 83 1116
15436 -31.606911323029621 0.034362926549375304 39.628729293990162 0 0 0 0.64428864340073433 84 1180 85 1403 82 1546 83 1099
15435 -40.32210113027724 -0.46462710386021133 29.454862054455035 0 0 0 0.090098863842516141 84 1168 83 1084
15434 -4.7600245414640421 -16.007171899126575 54.707699492645986 0 0 0 0.81479622708151067 84 1132 85 1337 83 1048
15432 -10.671050326244266 31.874394209585645 164.45477554451574 0 0 0 1.4063937181673016 84 1302 85 923 83 998 84 1083 82 1385 85 1259 83 1212 84 1463
15431 -28.13866631760855 12.415872706566395 41.337156018242716 0 0 0 0.211094261834846 85 1239 83 992 82 1355
15430 -26.886609103098362 11.882359697964196 40.110683591476885 0 0 0 0.61641034930080552 84 1087 85 1238 83 991
15428 -31.422118105236457 9.8084177782581285 33.804318350161331 0 0 0 0.38613335856889019 84 1058 85 1217 83 962 82 1323
15427 -39.950921929958689 0.81346471455739244 30.027458305980577 0 0 0 0.0847069122125758 85 1105 83 852
15426 -31.426556589269659 -0.41831311614411132 38.96950875130149 0 0 0 0.24259314714039634 85 1090 83 830 82 1196
15425 -40.486723860606382 -1.3730396482145373 29.910522730971994 0 0 0 0.38571341351045835 84 886 83 810 85 1063
15424 -27.759808338137869 23.129401080378326 42.243103536607862 0 0 0 0.63824958468353032 85 961 83 772 82 1011
15423 -30.276453706944956 14.74338664850335 36.249422610186492 0 0 0 0.62981320362360049 84 819 85 913 82 378 83 735 82 954 83 380
15419 -40.147298539938177 1.135783125852128 31.408113685475769 0 0 0 0.21377401060170351 85 721 83 543 84 613
15418 -41.571780155397484 0.5395891978978965 28.217007308428315 0 0 0 0.14748759177871473 85 686 83 515
15416 -40.516998436913525 -0.96764413754886003 30.011064437280201 0 0 0 0.20520718983115521 84 551 85 651 82 697 83 483
15415 -31.778426533032523 21.102409428310942 41.4888968468995 0 0 0 0.27871907180626004 84 480 85 458 83 403
15414 -32.667058974232333 14.55870487743846 31.530454425040631 0 0 0 0.12195334502832771 84 466 85 422 83 387
15412 -27.573272054529827 10.987816256427562 38.263982221924927 0 0 0 0.185968988076297 85 378 83 335 82 351
15410 -28.577588757287408 9.9483540313117587 38.286385044486359 0 0 0 0.27374120922962991 84 349 83 298 85 342
15409 -26.009481600161635 9.3035342321286425 42.726234906603352 0 0 0 0.76198112914652227 84 713 85 300 83 258 82 273
15408 -33.385229224012114 9.0178034672799097 34.668087684935678 0 0 0 0.21777139884424279 85 276 83 251 84 297
15407 -31.164745512611344 8.780461699394305 34.810095205090846 0 0 0 0.41179835283904342 84 299 85 271 83 245
15406 -31.1439464491717 8.7143112392385778 35.106279141118918 0 0 0 0.45198787153391645 84 289 85 265 82 238 83 241
15405 -32.161414872540838 8.7163555034562545 34.350054914589634 0 0 0 0.21691460241663063 84 287 85 262 83 239
15404 -31.706461392432544 7.4460754290212918 36.526905302796003 0 0 0 0.14046188571265358 84 256 85 234 83 210
15403 -40.44706068243309 2.3352166912655918 30.847537212380864 0 0 0 0.11968046384703002 84 201 85 180 83 156
15402 -42.108666713406002 1.9470778719816111 29.018768900798964 0 0 0 0.14407930668286556 84 191 85 169 83 149
15400 -31.883700988908018 0.18660951542553239 39.601763845558821 0 0 0 0.31632627477394248 84 142 85 133 82 122 83 104
15399 -32.133270059890663 -0.35982786605294859 39.549349321777164 0 0 0 0.56652098501026626 84 121 85 109 82 101 83 82
15398 -41.606996453590114 -0.090204798711618461 29.284725063280163 0 0 0 0.20924506195603332 84 118 85 92 83 79
15397 -41.15486237514866 -1.3593154076220277 30.53325699015663 0 0 0 0.23603501741814781 84 88 85 66 83 53
15396 -40.828039550255269 -2.032711310135606 31.663693899924485 0 0 0 0.32628352422443063 84 79 85 60 83 48
15394 -30.732308159789802 -8.1424013378739524 34.891960931900499 0 0 0 0.51742297323827768 85 24 83 29 84 514
15393 -31.262533630220553 -17.37610810043002 42.577750666988941 0 0 0 0.38674242869941783 84 15 85 7 83 11
15392 -32.857927617504522 -17.957639553420833 40.501170852735754 0 0 0 0.21319268587556925 84 10 85 3 83 7
15391 -32.884688870320481 -18.21388216896348 40.587607419736173 0 0 0 0.37428422271366313 84 8 85 1 83 4
15390 -33.337191058320613 -19.577251177795123 39.711752471335046 0 0 0 0.4047099855102862 84 1 83 0
15389 -32.009313217691499 16.416215369920742 47.031246395500048 0 0 0 0.34927182718223476 83 1654 85 1992 82 2167
15388 -28.486306707222742 12.665572284802794 42.389705979210682 0 0 0 0.4387674650432607 83 1650 85 1986 82 2161
15387 -28.87291066255824 9.3848408895155799 39.464696826509439 0 0 0 1.0208098592726256 83 1637 84 1714 82 2151 85 1975
15386 -33.495517289964788 8.4749084630662406 35.451502100922681 0 0 0 1.3325012699981507 83 1631 82 2147
15385 -33.404122473211785 4.6334705901507371 31.910065396468575 0 0 0 0.55063359613023388 83 1625 85 1964 82 2142
15384 -32.142356818067562 1.2771062541676954 39.939359703025907 0 0 0 1.5916327985643575 84 1693 85 1957 82 2133 85 1879 82 2067
15381 -23.517940002272873 -6.2312706018130477 43.479187683121388 0 0 0 1.1968133956688172 83 1600 82 2115 84 1675
15380 -30.75610256153179 15.363607013862989 37.965021221930641 0 0 0 0.65788334697618434 83 1588 85 1924 82 2105
15378 -36.674725876469225 1.3265848022961171 28.413052850746329 0 0 0 0.46920363236535101 85 1869 82 2055
15376 -41.592818522341517 -0.48866635451342749 27.595445692227898 0 0 0 0.94674697687701004 83 1521 82 2047 85 1856
15375 -23.431619075528026 -6.2085747397904072 43.231151931760714 0 0 0 0.7449984101416316 83 1511 84 1605 82 2042
15370 -24.314468163983918 15.053529527965761 40.906932771132311 0 0 0 0.55549237407189034 83 1590 82 2013 85 1926
15369 -25.486046241081766 14.513830673209334 43.690394162385374 0 0 0 1.068805399053208 85 1821 82 2004 83 1579
15368 -32.968692996819819 10.838841656983018 33.609854715923525 0 0 0 0.63781244024928885 83 1482 85 1815 82 1999 84 1580
15367 -24.141738234783517 9.4238338918008839 40.643255151023716 0 0 0 0.80195312994423507 84 1565 85 1808 82 1991 83 1468
15364 -21.313027540143679 -21.784992535439706 241.2237931500926 0 0 0 1.1259807839205198 84 1499 85 1762 82 1952
15361 -34.807443342389668 -2.6569804375406894 36.016554546347173 0 0 0 0.88821788259099677 84 1501 85 1744 82 1926 83 1408
15356 -32.940725786861975 15.474865189210897 31.778437312599454 0 0 0 0.63249941161169843 83 1396 84 1490 82 1877 85 1714
15353 -32.35997612468897 14.887882508506362 35.196156756236597 0 0 0 0.46610069954614564 83 1388 85 1707 82 1870
15350 -32.464248458985978 10.190629868038529 33.932548264806975 0 0 0 0.6686956953153872 83 1362 84 1455 85 1683 82 1850
15349 -12.301347584630131 15.781124361872862 192.59235089283209 0 0 0 0.91089642697782791 83 1328 84 1421 85 1673 82 1849
15348 -32.329777610887554 8.9522414751419266 34.040049092026372 0 0 0 0.67789337490063395 83 1345 84 1440 82 1833 85 1667
15347 -19.738145984734587 -21.431536827380672 233.54661583986058 0 0 0 0.33587919618503331 84 1355 85 1609 82 1792
15346 -40.60632288861953 0.92732000297249573 31.856778730664121 0 0 0 0.39347421556264628 84 1391 82 1790
15345 -32.032515938006902 -0.22771087306082857 39.360302412353057 0 0 0 0.84091175643304839 83 1286 85 1619 82 1779
15344 -40.122256522442818 0.32917542959110324 31.970533738819981 0 0 0 0.76079318181724676 83 1295 84 1377 82 1778
15343 -40.624859445899439 -0.14728206574694502 32.136267753272385 0 0 0 0.5971881732603822 84 1373 85 1611 82 1775
15340 -41.149459482044307 -1.6215057611762735 30.195160605408422 0 0 0 0.35649601241480999 83 1269 82 1761 84 1360 85 1595
15339 -41.092876977449492 -2.4572164648802448 30.153070637879278 0 0 0 0.17391928573781312 83 1265 85 1588 82 1757
