5.676453280094605702e+01 1.562092159116167522e+01 1.222717477108367845e+01
6.399892409770458102e+01 1.634033729978249028e+01 2.359299043296934784e+01
6.383000037650008807e+01 1.541680225566857665e+01 2.102720334462724239e+01
5.691015678104504616e+01 1.359184933850761468e+01 9.014409042684762952e+00
6.487210557565060753e+01 1.496455739458672873e+01 2.082372376010430415e+01
6.179608589019427711e+01 1.326682515726929346e+01 1.824012279327823904e+01
5.650166553277538384e+01 1.117778945871336482e+01 1.071130658285062687e+01
5.981208470569731617e+01 1.179262815067874115e+01 1.582506350928489525e+01
5.731253352411312108e+01 9.487698683551343493e+00 1.321834409231682805e+01
6.110289951762706551e+01 8.743761042716259979e+00 1.810906305080199274e+01
6.132924005868468953e+01 8.412657018958787702e+00 1.861409452026304479e+01
6.153645907243004132e+01 6.643593478943427222e+00 1.827593532878637461e+01
5.628607182874380754e+01 5.271445918059884939e+00 -1.685224370970533458e+00
5.884286637708580514e+01 5.424717853674833279e+00 1.461327148477095150e+01
5.872276067543290878e+01 5.230700699569961643e+00 1.289239590950193559e+01
6.457128150236097497e+01 5.291017792992926516e+00 1.628155995392173239e+01
6.229013338773690123e+01 5.220464597537341156e+00 1.871944638805670280e+01
5.853053238718883478e+01 3.996324812666408821e+00 -1.075369315030893169e+00
5.725577767150591768e+01 4.160650446190048868e+00 1.105117465107692354e+01
6.102300922297403218e+01 3.583850678893437003e+00 1.681273189081476716e+01
6.066946880455822111e+01 2.844307450458406716e+00 7.033517663620654226e+00
5.355199624748131981e+01 2.746123103437774304e+01 -4.170214139407235621e+00
7.911837476242125433e+01 2.485520982454587013e+01 9.206986241133252591e+00
6.504877072537296101e+01 1.972196817087915477e+01 -5.266165705098683425e+00
5.443418129446753539e+01 1.905315736914513280e+01 4.219223376971226003e+01
5.709070798629026910e+01 1.576413886471832804e+01 2.434933527321350599e+00
5.820821964293924822e+01 1.577245593813159985e+01 1.287527110994371604e+01
6.476754480461967489e+01 1.647399389900251521e+01 2.392758841633468592e+01
6.048466221087782202e+01 1.524453365748645695e+01 1.698825873616487669e+01
6.025696040553768995e+01 1.455045916609588375e+01 1.737370449851408338e+01
6.464824689268095881e+01 1.520782885844101884e+01 2.265631838969052225e+01
6.411081228769921836e+01 1.516766450004917210e+01 2.506529372619532126e+01
5.630801382399220500e+01 1.190810529363524495e+01 1.024514874179022961e+01
5.835941030872775315e+01 1.154828577537560363e+01 1.143640879108093600e+01
4.854364624745170431e+01 8.848652974802320159e+00 3.729040008015653829e+00
5.805259603903331111e+01 1.017383537477488353e+01 1.274312934737893244e+01
5.893251274972285358e+01 9.666293982256071615e+00 1.364173459506300645e+01
5.811551128411456091e+01 8.825350985974367291e+00 6.118049173143798036e+00
5.816399318851782851e+01 8.646096487511476525e+00 1.334424068337079738e+01
6.311208844801235784e+01 8.875878030287402964e+00 1.871128402713148375e+01
5.642427172030318872e+01 6.587718500922401077e+00 1.061683103276124918e+01
5.764275847614203485e+01 6.130672779517533755e+00 1.109081447580797963e+01
6.165679441418387086e+01 6.399844933430323124e+00 1.481163107186505634e+01
5.702754743924855774e+01 6.000189587165418281e+00 1.170686949094282525e+01
5.767496219608445784e+01 5.898639190974274804e+00 1.252737732613729804e+01
5.706513407087717837e+01 5.591032541403227363e+00 1.240280794547784637e+01
5.409872437261651612e+01 6.713086526702953805e+00 3.949356373064748027e+01
6.054939502882161406e+01 5.332547798830001184e+00 1.387261310049433050e+01
6.031446595573329006e+01 5.222526397689122746e+00 1.686456280237744565e+01
6.206831065007126114e+01 5.240129769414472172e+00 1.860536065247240600e+01
5.094136098493223130e+01 4.558371795085743194e+00 3.554709575848520320e+00
5.919730356753934331e+01 4.932950747527034885e+00 1.427543451370602945e+01
6.168936913245279641e+01 4.102854359164830100e+00 -1.842556297175406588e+00
5.726197448524403200e+01 4.260898169994542073e+00 1.089867596816555384e+01
5.607362858806960304e+01 3.117687666000391378e+00 1.041481870407318588e+01
4.963994165230021594e+01 6.398254436124348188e-02 3.394651767755505478e+00
6.237596489055792404e+01 1.967866297448899005e+01 -2.594393256662850700e+00
5.819960248711323914e+01 6.654940437902115313e+00 1.105331380026105847e+01
5.712541898591911860e+01 4.733079847971914056e+00 1.148937652834775669e+01
4.947978832506795044e+01 2.381586330959055142e-01 9.998166029099926355e-01
6.021172376456181041e+01 1.653764128054090676e+01 5.794072907101224107e-02
5.900803120571646332e+01 1.469597635118159218e+01 1.433814874147278751e+01
5.576221727712200504e+01 6.683173055623166547e+00 9.926975580438943680e+00
5.789143828754627208e+01 2.227930202825061379e+00 -1.689986238643422345e+00
5.880196476879357448e+01 7.278076959236089438e-01 -1.863150526483495106e+00
6.027294997446647074e+01 1.664580240276601586e+01 -1.119164208848329733e-01
5.953730393892166006e+01 1.507656793552171948e+01 1.216731724758004951e+01
5.780738738989516179e+01 1.389027661491416410e+01 1.251484650636194829e+01
6.555741011095211945e+01 1.314104549792932275e+01 1.843872080882476538e+01
6.570615423676076716e+01 1.080563041029683902e+01 1.805855167721783516e+01
5.169735486465931729e+01 3.844699998706945454e+00 1.246071694105749472e+00
5.708033613523480909e+01 3.314035368762731526e+00 9.978608056783331293e+00
5.896740941197914054e+01 2.998246175809577529e+00 1.207787014446927465e+01
5.899800591794666360e+01 2.536988202477620025e+00 7.487351010786452932e+00
8.077027048403856213e+01 -5.685896150146139139e-01 2.527602495233862712e+01
5.845074201519503276e+01 1.638104512091975096e+01 -1.843749315714205750e+00
6.314738740894178903e+01 1.375998986138287172e+01 1.579827689461837892e+01
5.699020266521664269e+01 1.035545835403200599e+01 1.107495725952391297e+01
6.149826485528603826e+01 8.806566848184973040e+00 1.887517386461006907e+01
6.321603124883738900e+01 7.115532685477377051e+00 1.608992105228425729e+01
5.574152669682238326e+01 1.560940512202473229e+01 6.083623852285543698e+00
5.477675136088993213e+01 1.826648256051910835e+01 4.005205483415792145e+01
5.196461487666195467e+01 1.611726517631367983e+01 4.268325296714831296e+01
5.111258076698988617e+01 1.121588118695721903e+01 2.697390685275164124e+00
6.039749510689441792e+01 1.302113463339764543e+01 1.330407881753632715e+01
6.589521506783454186e+01 1.323679484928304895e+01 2.564688423705861098e+01
5.694811753849533886e+01 1.082536372889467735e+01 1.074775953561903385e+01
5.988230170969241328e+01 1.133608485020379675e+01 1.587610347706110936e+01
4.310636133481517618e+01 9.934664541469945931e+00 5.970423600420870613e+00
6.031809121503290783e+01 9.817236047779736907e+00 1.330943558493474299e+01
5.857884912748736639e+01 9.323832650572059677e+00 1.106315477947747894e+01
6.244796072034043988e+01 8.936704539114943557e+00 1.784013678266019909e+01
5.714381606041587247e+01 6.408383227617597377e+00 1.081451004803175486e+01
6.242071833798622293e+01 6.684798670105304375e+00 1.641141122321181101e+01
5.709363335727810096e+01 5.619124220275738324e+00 1.042457086746570205e+01
6.158012588044324787e+01 5.384900557530307275e+00 1.805244779199091454e+01
6.036341347422306569e+01 5.041457481168233556e+00 1.285367690507724525e+01
5.709803341368687768e+01 3.843374828951631184e+00 1.216776561014578206e+01
5.684203827263502973e+01 4.237467017859041896e+00 3.920740071642538283e+01
5.179604270513512887e+01 3.220920780848096854e+00 4.219613618728033089e+01
5.383242771817617012e+01 -5.191609277837103242e+00 4.359329017321599764e+01
5.928571394201391342e+01 1.796985662947864171e+01 1.327829514495066299e+01
5.326889281744335847e+01 1.642235241850245231e+01 4.162017270331855912e+01
5.824474746977129058e+01 1.460682165992603920e+01 1.078105180323573364e+01
6.397910977300146129e+01 1.640455491755307449e+01 2.167768537043072286e+01
5.852432052698635090e+01 1.449693444757810745e+01 1.312002672743741094e+01
6.194041696274250342e+01 1.604221468690781194e+01 2.467557145653290718e+01
5.791530319407297611e+01 1.323066137231377759e+01 9.971632347118754680e+00
6.139607952376654509e+01 1.198126975689754126e+01 1.856032320787056733e+01
5.924213085734358941e+01 1.096065139527517474e+01 1.655738027401181967e+01
6.181753857855282774e+01 1.055052798552598681e+01 1.813291768902844936e+01
5.860299752333780532e+01 9.321621476295721465e+00 1.104398964879536038e+01
5.519481981965611794e+01 7.291614247720960229e+00 1.054328045260943192e+01
5.485328353103430743e+01 6.426399145212685404e+00 9.551567431752685522e+00
6.094470289369869676e+01 6.728178555087840351e+00 1.449773162007170058e+01
6.371097685156450297e+01 6.172233397477738137e+00 1.840714729287494933e+01
5.791221903077816080e+01 5.617448879294792086e+00 1.027892009342194868e+01
6.561932361488641163e+01 2.418627738725255050e+00 7.894760879574273638e+00
6.120799275403023643e+01 2.472715242260441038e+00 1.346497777652846217e+01
5.171803830800693902e+01 3.153428444096065597e+00 4.216066849852364840e+01
5.251656550180403826e+01 -2.339839960628439797e-01 3.680243585725760269e+00
6.572458391341578476e+01 -2.689887433007648987e+00 3.036418168410337870e+01
5.391173748506962227e+01 -5.276783094963555243e+00 4.355314395946101769e+01
6.456650352408527738e+01 2.885264147266746093e+01 2.626334452818456455e+01
5.325146556455469948e+01 1.765971621513850920e+01 4.120685585186942035e+01
6.300642844882308680e+01 1.615130682264290130e+01 2.306917180941176682e+01
5.069260305658827548e+01 1.107581527326990489e+01 2.637046135763488675e+00
6.561193236889396019e+01 1.180483434168285761e+01 5.376346811793220049e+00
6.410787154007630306e+01 1.312688951133809923e+01 1.856547553280890739e+01
6.019327187830118220e+01 1.145598437895486477e+01 1.311112069905741784e+01
6.157096052657485075e+01 1.165061414648147498e+01 1.639873561528787249e+01
6.014733728681527225e+01 9.553789172034894861e+00 1.299980542733366740e+01
6.324404930956885096e+01 8.797213965693851279e+00 1.972700371497079530e+01
5.678853936597217000e+01 7.358079426658556521e+00 1.080066481305926196e+01
5.866365308209714158e+01 6.478023562037477312e+00 1.221712429193658167e+01
6.544868666507156263e+01 6.650907731204512174e+00 1.893554699044390688e+01
6.142471597918382287e+01 5.981637890673384916e+00 1.561483199573241620e+01
6.212581993241996514e+01 6.034643404348353890e+00 1.701046049576881103e+01
5.423467496144448319e+01 6.707779384042954263e+00 3.960231311090991824e+01
5.887316918436631141e+01 5.175193487709236706e+00 1.203276603905163533e+01
5.296335161355695931e+01 6.333265193739224586e+00 4.038434229668899889e+01
5.214310997715264051e+01 6.310325712735550319e+00 4.248367585419990178e+01
6.005713209553611165e+01 5.610181731918366665e+00 3.529184434815609706e+01
5.868481212165294636e+01 2.760569693403918112e+00 1.281076293332653826e+01
5.410847785936454812e+01 2.403488364380510500e+00 4.005867892499187377e+01
6.877379186734685845e+01 7.299977037963366611e-01 2.593563243493134252e+01
5.421860341928309879e+01 -2.354104095800147345e+00 3.981807796698838331e+01
5.233267108421110692e+01 -4.344030142028639574e+00 4.197074783005103882e+01
5.815974823974441676e+01 1.732594455287804536e+01 -3.078773340633732758e+00
5.021251972962376442e+01 1.907309971820772532e+01 4.484827888160225484e+01
5.691425908504654529e+01 1.486980649640025653e+01 -3.111177888798461133e+00
5.872643517267172086e+01 1.523281938157782456e+01 1.176243287129878823e+01
8.910398020395213337e+01 1.665695926089651024e+01 7.548313241567333520e+00
5.709890480831784032e+01 1.440853990395663864e+01 1.052106445743686081e+01
6.522400381265768488e+01 1.568754816044950928e+01 1.978469788523275597e+01
6.317356552506927869e+01 1.545589013214438978e+01 2.007871868292601647e+01
6.535195987782886107e+01 1.534499048854342540e+01 2.387796672669347586e+01
5.875294646698107925e+01 1.255717912968765937e+01 1.418407323448605162e+01
5.967315513161971552e+01 1.208921231204551461e+01 1.303076657777292446e+01
6.075549831832520908e+01 1.153812985400151803e+01 1.580147096066993306e+01
6.135890917313028581e+01 1.167483296884388544e+01 1.824110899021525967e+01
5.972752302905252009e+01 1.080287324436457475e+01 1.589728142577989622e+01
6.025971504151048919e+01 1.020536106565417001e+01 1.398573475444095671e+01
5.951048831275694084e+01 9.706678871568920286e+00 1.446250348292122467e+01
5.810304667119859801e+01 9.029861577366059322e+00 1.260173315031835095e+01
6.155468971105800335e+01 9.028950535288688073e+00 1.751333824083241453e+01
5.898463571459008392e+01 7.515823919802408604e+00 -2.568843002102589423e+00
6.192342409769388922e+01 8.803041139783767122e+00 1.934892439878096226e+01
6.221663126366728847e+01 8.514741453801663695e+00 1.883724598405225947e+01
6.307620613328775505e+01 7.307429950941530805e+00 1.887819442313366736e+01
5.682983462400820684e+01 5.434474204681710496e+00 1.161972675175909764e+01
5.343102655227252029e+01 6.159387264788453997e+00 4.068275027881518469e+01
6.048791457702294139e+01 5.244526762815918453e+00 1.731245128428645330e+01
5.842557562102847868e+01 5.820151213008001534e+00 3.639465589617635288e+01
5.858047895605144362e+01 5.396459946390440798e+00 3.599613069053997094e+01
5.792963881103174373e+01 4.535735783972921098e+00 3.684516184549418227e+01
5.862316728947337907e+01 3.047053956336020608e+00 9.658850228154109985e+00
5.604068454664997745e+01 3.083850338235291311e+00 1.036985447841997932e+01
6.158604418913245127e+01 2.818436114586738928e+00 1.762197715234937334e+01
5.366115888614913132e+01 3.062398561811356501e+00 4.149892437704778558e+01
5.398800403488815647e+01 2.365261514319073388e+00 3.987410903888142855e+01
7.182423847298895225e+01 5.096717466269992114e-01 2.793501801705601295e+01
7.113502300941512146e+01 1.714822028491864003e+01 4.512731086210632014e+00
6.315836307456286391e+01 1.516060897159685084e+01 2.004866636006141789e+01
5.854240087227510969e+01 1.206281877570136096e+01 9.755519735506611667e+00
5.459610926931791397e+01 6.087007205138849741e+00 1.134254658424279505e+01
6.045932840749703985e+01 3.380516013782099538e+00 7.225582633134188804e+00
5.716122474442006052e+01 2.994067975481029986e+00 8.785220966844182300e+00
5.195887398717793815e+01 -1.024412678957509648e+00 1.947173249931706929e+00
6.634868541802197228e+01 2.109533601653443924e+01 2.587197206078679912e+01
6.854095129157668964e+01 1.712084632183492516e+01 4.441942548709133298e+00
6.269531001361372091e+01 1.621717331063707945e+01 5.948721210787028646e+00
6.544567968294168736e+01 1.645120080033481003e+01 2.220943893778262179e+01
6.551694256081439960e+01 1.541315717531451668e+01 1.863705696331528472e+01
6.740447243329643356e+01 1.401511332926751052e+01 2.105471877489213384e+01
6.169671676521837611e+01 1.147923212411106242e+01 1.469259324463079963e+01
6.279142480496949474e+01 1.058190275118560209e+01 1.529902749437830423e+01
6.136135225251800307e+01 9.184139830384047798e+00 1.590983053934810876e+01
5.741054920243639970e+01 4.319455759220145907e+00 -2.736766132966340415e+00
6.676275090477837182e+01 1.860739072045728904e+01 2.597844137712481327e+01
6.537649248136317226e+01 1.382063131327793570e+01 1.921441765288367876e+01
6.591307659601477553e+01 1.398466075530126851e+01 2.033465093639184929e+01
6.167449825434103161e+01 4.647512763229564747e+00 1.742897013179821997e+01
5.912663586881826205e+01 4.409411758545179971e+00 1.055086026983572189e+01
6.044619380504595796e+01 3.335759410254022672e+00 5.371409569969670450e+00
5.852551033046043472e+01 3.373529473157342640e+00 8.535222953865883255e+00
5.815095369951524162e+01 6.175696805594038663e-01 -3.525884015869182875e+00
5.721665597288377114e+01 3.922444605993395950e-01 -2.278164225237555129e+00
5.833849866417007490e+01 1.787043252273735661e+01 -1.883952741604670411e+00
6.390260002329439715e+01 1.394750178255642048e+01 1.868762437646817887e+01
5.863537241919716791e+01 1.385203864465715995e+01 3.663072131457204250e+01
6.273967522445467182e+01 1.296550285663379753e+01 1.684930041595434602e+01
6.051968897694193572e+01 1.092356498000414788e+01 1.256481175074873491e+01
6.180393446619442699e+01 6.315603045903133150e+00 1.574022842288794699e+01
5.384984876198195991e+01 1.838945837213794121e+00 1.439126335655249445e-01
5.981526142711565797e+01 1.799662992644623927e+01 -1.860647193164667756e+00
6.197899220748022486e+01 1.785968178954456320e+01 -2.418373268051820624e+00
5.276920022106032349e+01 1.892430601892885988e+01 4.231494581778911623e+01
5.188074982741873953e+01 1.760325599209356540e+01 4.208931823608085665e+01
6.083792427638182687e+01 1.105922766607514163e+01 1.513120582729020036e+01
5.372675859769655204e+01 8.081027558154012524e+00 4.242690812514114640e+01
5.296471722503353163e+01 4.601348816081650028e+00 2.140263282413933599e+00
5.899083350857362262e+01 3.913041754941780415e+00 3.692971222909575602e+01
5.435044578558015615e+01 3.394076077728829244e+00 4.093522629063289742e+01
5.159302770491624557e+01 1.562953821836282620e-02 1.926451189939165198e+00
5.598361417648730054e+01 -4.752174198752157075e+00 4.067610975603313506e+01
6.300692804300289396e+01 3.370980262549773698e+01 4.031102109902358066e+00
5.948754286736035368e+01 3.327957707740527837e+01 1.258793080235013662e+01
5.268881731638437316e+01 1.924473745508566935e+01 4.351847966272024593e+01
5.255080634646412818e+01 1.875044196916886818e+01 4.213344423217721157e+01
5.460502981884372531e+01 1.825410770700029772e+01 3.988788236572038670e+01
6.256921447349492382e+01 1.021232073390501327e+01 1.611739922558011173e+01
6.247299861520860276e+01 8.481962103100805450e+00 1.715894036620167284e+01
6.036557428092084621e+01 5.630749630075165157e+00 3.552441944657235950e+01
5.192859718804598401e+01 -1.905657191371742509e-04 6.461215211394456537e-01
5.462438128014664329e+01 2.767141167784180666e+01 -6.123567379826619472e+00
5.780829364117313673e+01 1.703127069489552170e+01 -2.438732799558919417e+00
5.252878633781838857e+01 1.867940933919049940e+01 4.213015841916907078e+01
5.449610309640863193e+01 1.834914772609420197e+01 3.979872174300757592e+01
1.465606703431431299e+02 2.587799182894884709e+01 1.037190636306582014e+01
5.488788669543171039e+01 1.669072971034619002e+01 4.282738817001201426e+01
6.113156507671703110e+01 1.494583629100398525e+01 5.215515607890618632e+00
5.991702138132259847e+01 1.485415254280501607e+01 1.265481932494546236e+01
5.856488920230503936e+01 1.087462458999813286e+01 -2.366575950127566941e+00
5.870402919742365100e+01 1.024100818511237065e+01 6.592716437994208256e+00
6.164227200733503764e+01 6.356863728031128424e+00 1.624312872588527767e+01
5.857561326885807773e+01 5.335273522906263111e+00 -3.371029214753271219e+00
5.367425530338829276e+01 6.151069240504565272e+00 4.159213385271442576e+01
5.971266589425889038e+01 4.611441244213805746e+00 -3.289818865793411984e+00
5.377837441863078283e+01 -4.494507795946047324e+00 4.214385014496340887e+01
6.937274056923165233e+01 2.726456295493804305e+01 2.762657214686622353e+01
6.875901106206401892e+01 2.153163107723522884e+01 -4.229837342416394641e+00
5.336453621020221050e+01 1.768963971254492762e+01 4.126242695429847629e+01
5.877476479714442092e+01 1.195971926310561706e+01 -3.237867685050116684e+00
5.862487765877444446e+01 1.081701311654614983e+01 -3.193767593062046384e+00
5.875053619479407274e+01 9.518856906800696294e+00 1.145097221015805822e+01
6.343476964336357327e+01 9.603543579369981487e+00 1.705380659967502055e+01
6.290520554189020430e+01 9.511428869060489788e+00 1.617095398948253759e+01
5.194218239735245390e+01 8.801010848263528530e+00 4.391930338375558307e+01
5.954792758019636523e+01 5.466670835171242082e+00 1.120369425741290925e+01
6.377134884007211468e+01 5.680191134315413670e+00 3.245777133838809192e+01
5.770327361628115170e+01 5.098669377669901692e+00 9.528487500439679181e+00
5.652429448480131668e+01 4.684578575026625558e+00 3.896562080572579134e+01
5.800539510711767832e+01 4.176645826018521745e+00 3.627239827632914881e+01
6.138887218009522684e+01 3.090398938710278376e+00 3.561497417699788315e+01
5.193570284621397093e+01 4.029501432268434158e+00 4.310583562304522331e+01
6.282025397264723665e+01 2.582824584632585907e+00 3.465015323723033447e+01
5.938671031988251769e+01 2.036118297482087947e+00 -3.484243160305259934e+00
4.983461285418514564e+01 -4.157999826778454588e-01 4.468465858528814039e+01
6.206523638590424952e+01 -3.473755989843831493e+00 3.382594696374979293e+01
5.328875075122208926e+01 -4.440566456691511732e+00 4.188785289165277703e+01
7.666646098184421021e+01 -1.860038734348339418e+01 6.563247035004271090e+00
6.280041455817597296e+01 2.438580071028320617e+01 -6.262831921953822878e+00
6.500375993945037578e+01 2.051466585635225925e+01 -6.393323342842739621e+00
7.138228088558820161e+01 2.128460122841066138e+01 -4.641370915259344088e+00
5.618754012084492899e+01 1.804254683297430617e+01 4.912886491288835700e+00
6.063703116125314807e+01 1.627031063410255385e+01 5.793154869074331970e+00
6.507710468538463999e+01 1.520624859396623485e+01 1.837752175613209715e+01
6.291344731919957667e+01 1.377324269271002599e+01 1.235334296659659792e+01
6.243601083698099075e+01 1.380899080022274639e+01 1.385390152059478730e+01
6.010272675871173220e+01 1.085679231915289300e+01 9.165429592207269494e+00
5.860531442252516143e+01 8.559353039903585980e+00 1.238737338290864010e+01
5.543430023587100663e+01 6.033369811824175422e+00 9.268569156595104275e+00
5.995450772812743168e+01 3.506891444197085317e+00 5.600403166036009850e+00
5.726966621816855252e+01 2.464565266085752437e+00 6.245949734865101632e+00
5.453957518083961276e+01 1.942521194985249666e+00 -1.932092594576316491e-02
5.770802409818808343e+01 9.048175358635317522e-01 -3.603278220020908584e+00
5.271762549449797319e+01 -1.199478782641138080e-01 1.536149046454248435e+00
5.925431199528837567e+01 1.841886009238999478e+01 -1.470550918338861424e+00
5.905199873090510465e+01 1.618779605864570925e+01 -1.522057588320540722e+00
5.818131439365473767e+01 1.615056349699735705e+01 5.521866481311024089e+00
6.128131207466381625e+01 1.606344560263232069e+01 1.770115210557413477e+01
6.521088910581443088e+01 1.541205438826806429e+01 2.051082159352090528e+01
6.016199048572989483e+01 1.365495823332120651e+01 1.336358118999184263e+01
4.753786902107651713e+01 9.815118982493450162e+00 5.046777491687624462e+00
5.887455768780244370e+01 8.782871700555601180e+00 1.243402164945748467e+01
5.718231783246325506e+01 6.955354980882983540e+00 8.703976457668721523e+00
5.707203807714713406e+01 6.692107999937586982e+00 1.078951684808286693e+01
5.712399022087124223e+01 6.251268291479481043e+00 9.538752519325583989e+00
5.840000182464743972e+01 3.550795594991433823e+00 5.399864997795025268e+00
6.071323682772352015e+01 3.230874246357746671e+00 7.605268024909310753e+00
5.968406938229401248e+01 2.449987094816183930e+00 6.346991904211904512e+00
5.197894496857530555e+01 2.258718602207444359e+00 2.043382562590572715e-01
5.659871377496003220e+01 8.061301806789611391e-01 -3.489588839924857577e+00
6.254364212808003742e+01 2.445523013876320562e+01 -6.327318362341102898e+00
6.518305407840684040e+01 2.173953269400249866e+01 -6.668388268513932182e+00
5.819205958998580286e+01 1.630122756178844412e+01 -1.624060087448139900e+00
6.190193373787035114e+01 1.617146723716680157e+01 3.616795831049748777e+00
5.997167092177893721e+01 1.359386513970179422e+01 1.330974985991442416e+01
5.979498007305769391e+01 1.362188394804496738e+01 1.413133913225559546e+01
5.753023146857746895e+01 9.340867289354994440e+00 1.082732040194428613e+01
5.968630667626720765e+01 8.671240125554442457e+00 6.612546113352521182e+00
6.043202640567290018e+01 7.097188834220625075e+00 1.544728368078428105e+01
6.243993448097238286e+01 6.692974931101007385e+00 1.707002981020760757e+01
5.900402846668417567e+01 4.223522095652496589e+00 -2.875126704765030183e+00
5.737133976997048990e+01 3.574598770187526586e+00 5.044329929164412363e+00
5.858198431109505577e+01 2.620156506011871667e+00 5.821957842567436536e+00
5.874128551088373484e+01 2.107906545448294366e+00 -1.993975084420402055e+00
5.068463251682360493e+01 1.689038619405171526e-01 1.717734500541320486e+00
6.446207506666111442e+01 2.528669201516589027e+01 -4.438397853941826732e+00
6.304147685899096842e+01 2.455857109001502536e+01 -6.449638829684021246e+00
6.543468894443530814e+01 2.173461309062145475e+01 -6.999868450068944981e+00
6.218428377379527916e+01 1.634085238341996060e+01 3.626336607255086886e+00
6.204289267477411585e+01 1.615829928121520354e+01 1.813607569616331716e+01
5.734926844153604009e+01 1.469393604891803307e+01 9.381265285204388960e+00
6.088968769062694264e+01 1.444987504211772666e+01 1.498920818175583669e+01
6.122517996739984625e+01 1.388969675026143946e+01 1.427796543726730505e+01
6.129697317133265244e+01 1.357074629183391146e+01 1.349095391711803771e+01
5.037704306754452688e+01 1.122714147097772575e+01 1.113066648868024533e+00
5.798323940929234510e+01 1.128263551789143371e+01 6.470832445131299515e+00
5.931657722995034732e+01 1.001583839991992875e+01 1.288239593815314521e+01
6.297473395954585840e+01 9.362139096801914917e+00 1.659222373126559091e+01
6.249175083046566925e+01 9.022710117658494511e+00 1.588397348430427769e+01
5.988746654107631429e+01 8.442558479944867855e+00 6.633937619952004816e+00
5.790517464283980331e+01 5.982366674447717081e+00 1.006903403582037093e+01
5.799336020584016893e+01 5.587334987305824896e+00 8.775498663795181287e+00
6.656544554316366202e+01 2.085896299992045511e-01 2.679312114421791335e+01
5.072693741098202480e+01 9.507295809050453350e-02 6.701425934848102006e-01
5.430113063234631454e+01 -4.724187046277202207e+00 4.107564542623182291e+01
5.542529222494125207e+01 2.770443471430846571e+01 -6.155644688934047259e+00
6.467045018018849589e+01 2.541613549046781984e+01 -4.178622574810650470e+00
6.392186704498445948e+01 2.154082388384773594e+01 -6.757414588819738555e+00
6.059265383331396748e+01 1.687955776701489086e+01 -1.806391437663693811e+00
6.129787607157759766e+01 1.575910586177139372e+01 1.410372417822799029e+01
5.827980298673085713e+01 1.411001611720574367e+01 1.086501799045198702e+01
5.740725651096697391e+01 1.284024301930818268e+01 8.264145083710337403e+00
6.004640398992700057e+01 1.412799643381542047e+01 3.751372510301378327e+01
6.083834544020514556e+01 1.200521896625358131e+01 1.371378584665998623e+01
6.066745921339918368e+01 1.146568313877073386e+01 1.428005295150946630e+01
5.847454793448689259e+01 1.065406038441788539e+01 1.147423122905302684e+01
6.231581830764811514e+01 1.064725630038597259e+01 1.651396767777589147e+01
6.153982057493315949e+01 1.028637923696368972e+01 1.577417599976693019e+01
6.383335152602918328e+01 9.461267906082058587e+00 1.691136416921848351e+01
6.176761559782546129e+01 9.015521690088618811e+00 1.587704270337759205e+01
5.580105622265011789e+01 9.055553256655334948e+00 3.860255153510982495e+01
6.056859900217276049e+01 6.294561676613894541e+00 1.559875336227904263e+01
5.751762177493161232e+01 5.690689835448914380e+00 8.779841587628780530e+00
6.296718728661483055e+01 5.545944231300735439e+00 1.518372993841795271e+01
5.871579027165068254e+01 5.194984074171759225e+00 1.148479204232298656e+01
5.257622499095785429e+01 6.220660602069077783e+00 4.279291534086498672e+01
5.255131251078750410e+01 1.989561625934550104e+00 2.032006217871177856e-01
5.455641869084561790e+01 -1.730146308245080977e+00 4.087175590504929801e+01
5.373939736008616563e+01 -4.548657895804738338e+00 4.075914097815473980e+01
5.357610883550241709e+01 2.758542872552493819e+01 -5.804470864487798032e+00
5.465213767250963173e+01 2.747092039000460062e+01 -6.168137930675620773e+00
7.062712473879267350e+01 3.535130892509788936e+01 2.003493958868408598e+01
6.518234876126074084e+01 2.545168387926441156e+01 -4.137371089816041625e+00
5.953758829158675070e+01 1.981527621124215344e+01 3.533660958727504919e+01
5.465193598761450744e+01 1.821587544698823535e+01 3.926246872529402765e+01
5.218482262597004251e+01 1.612748975378890748e+01 4.285724217237289224e+01
5.920272192249004206e+01 1.393465595754865660e+01 4.844148117410814081e+00
5.019068149247517852e+01 1.143217479739493037e+01 1.045086213920823681e+00
6.100715431740069050e+01 1.157449737682944679e+01 1.425678092902306382e+01
5.829933045548873594e+01 1.094147066536026713e+01 9.221092674291544000e+00
6.223342857335422451e+01 1.059138631403239650e+01 1.640262842379445019e+01
5.934247974927838243e+01 9.027897330693321010e+00 1.116466383822121600e+01
6.216886119744960837e+01 9.019056627223044131e+00 1.603819211127074595e+01
5.838419361543862607e+01 8.346002830277084783e+00 6.431877769781833010e+00
6.289221607563134597e+01 5.299576355528975213e+00 1.613167604984288417e+01
5.880392286439193583e+01 5.834456320851918676e+00 3.672707266713411656e+01
6.054592878586514360e+01 5.071833663770049405e+00 1.232222706352677477e+01
5.893085545413328674e+01 3.841351763127110353e+00 1.075652682294568230e+01
5.788933622375197530e+01 4.077651202363672844e+00 3.724645630851851053e+01
5.084856747231484064e+01 4.082050383155707785e+00 1.332598735533172540e+00
5.753334485199602000e+01 2.334827034226368170e+00 -2.237738460919242112e+00
5.257838436885462130e+01 3.111100180763266110e+00 4.164612579379401325e+01
5.197810100562823976e+01 -4.855855574261644381e-02 1.912415791606393523e+00
6.696929160200868125e+01 -3.234593408903163159e+00 3.020959277375179042e+01
5.488783140272324346e+01 -1.820530523232357423e+00 4.093864337086981209e+01
5.524811959170826725e+01 -4.589177374632441797e+00 3.998710582149195147e+01
5.683036569798331783e+01 3.219805012341037553e+01 7.861618889726844195e+00
5.360628202788231533e+01 2.749937996825384801e+01 -6.446575055908230212e+00
5.369106739054883803e+01 2.764194434666086764e+01 -5.895781604074501914e+00
7.744892683273782552e+01 2.572537530108989046e+01 7.326431980158853996e+00
6.446264384198775588e+01 2.103727091087224821e+01 -6.813062460803839038e+00
5.310763777754384307e+01 1.899892994916813649e+01 4.194720040711465714e+01
5.479737545850441194e+01 1.907018878549534335e+01 4.246294557693657623e+01
5.991144677514578376e+01 1.536472049101868009e+01 5.036930930693995556e+00
6.107358682502999869e+01 1.430243933670018563e+01 5.080901070238375006e+00
6.185706585273607772e+01 1.331975962477529940e+01 1.645985279315418737e+01
6.017291293572018418e+01 1.304351338752481126e+01 1.321742660135492642e+01
6.133709670239384337e+01 1.260477010934860154e+01 1.401055712231010553e+01
5.044781972574054407e+01 1.113939233342373747e+01 1.015246123327284256e+00
5.978095350574204758e+01 1.190247763244559387e+01 1.354205043567632849e+01
6.305708435694620562e+01 1.193639509365387141e+01 1.729660777512972558e+01
6.332209540500502953e+01 1.167338952885067727e+01 1.628267001666311131e+01
5.954779529741374233e+01 1.080114336776157913e+01 1.218379132031262735e+01
5.946466790274118352e+01 9.090422916974945977e+00 1.112055793244366875e+01
6.042880409254695451e+01 9.090544845897714055e+00 1.269582488802098652e+01
6.080618842270376945e+01 8.658064439055968009e+00 1.286825421536772573e+01
6.263326921126318325e+01 6.727610116218645686e+00 1.638794069678674603e+01
5.954372265642859929e+01 6.189538505561214876e+00 1.178994254269448483e+01
5.987061346756956226e+01 5.757582805750237398e+00 1.238274766309956298e+01
6.215975773556729678e+01 5.503075639680575115e+00 1.643651785094550988e+01
6.338439894560794130e+01 5.305879444956786095e+00 1.717244213124334706e+01
5.465613347905349428e+01 5.820793232607223366e+00 4.058611393820392976e+01
5.301318725835238155e+01 5.822882209236674989e+00 4.133649395095599033e+01
5.875904902812730057e+01 4.332204103117976324e+00 -2.530420186034175956e+00
5.848432005246477416e+01 4.336479964245428143e+00 9.605264786264216426e+00
6.625871919102553420e+01 3.803104431303032662e+00 2.979936006177112162e+01
6.730655523286361586e+01 3.650034284343710578e+00 3.187424392858206801e+01
5.817906768023822650e+01 3.859493623604800305e+00 3.741459580115844830e+01
6.062742712392286393e+01 3.403867874929328075e+00 3.435365413204157647e+01
5.268945254729982253e+01 3.928067676884639425e+00 4.376466705558995329e+01
5.448405366029526675e+01 3.305586607876243033e+00 4.102507684993031489e+01
5.190789554668295125e+01 3.199472608097827298e+00 4.109642865234918929e+01
5.337037281150453794e+01 2.844900983524668803e+00 4.153823026873712365e+01
5.858756111475539541e+01 9.947189193994917522e-01 -3.376645699033562043e+00
5.787618515969460731e+01 -1.451336294130115334e+00 3.701471770428422303e+01
5.465324419521052590e+01 -4.996326966773009914e+00 4.165138894288867277e+01
5.492014196148915772e+01 -5.352585340667244118e+00 4.058992777911792160e+01
5.519356017454537522e+01 3.264509973690453393e+01 5.139598601469962169e+00
5.645861485914173983e+01 3.313336588782985359e+01 6.390412341058921086e+00
5.837616929243889530e+01 3.373468866657355392e+01 1.133864039700487858e+01
5.813998021879008604e+01 3.273991061997906371e+01 8.071756268947828161e+00
5.335783304199944865e+01 2.803569153718710183e+01 -7.286174070603628650e+00
5.422131450141559128e+01 2.783193060100754934e+01 -5.939086615150912962e+00
6.437169218112177305e+01 2.179380814965081825e+01 -6.944777654037935122e+00
6.636567119879140364e+01 2.213286712035420223e+01 -4.261770482130620152e+00
6.526317827026724672e+01 2.130902013694756292e+01 -7.015833727547010845e+00
6.477976053867909911e+01 1.976793974704764167e+01 -6.910573172990832624e+00
6.643552155750673194e+01 1.964938139490002200e+01 -4.323768356963248571e+00
5.296292454379479153e+01 1.940454798914568002e+01 4.370152534954459611e+01
5.888595027096388179e+01 1.638201095120513173e+01 -3.164170850171833749e+00
5.858797546832740721e+01 1.623797955878184851e+01 -2.393196506390383060e+00
6.052195292915576630e+01 1.600529137836793225e+01 1.324123391585812293e+01
5.861557521558569306e+01 1.409561779707300566e+01 -3.207015562651909235e+00
5.995940606427074471e+01 1.462879235896506636e+01 5.052706324646005775e+00
6.119665583342379733e+01 1.429258229753901688e+01 5.071406376380975800e+00
6.044478251880487107e+01 1.458744428332853005e+01 1.408604745378121770e+01
5.826883074286131858e+01 1.295046598068387844e+01 -3.175486276660437035e+00
7.128006994012605446e+01 1.468094569467075594e+01 2.722972060606450384e+01
5.588823958148445570e+01 1.289091334269272870e+01 7.875884373604327138e+00
6.162749096399740978e+01 1.291400543591485572e+01 1.448272696801791959e+01
5.869169600740312376e+01 1.184501255857162683e+01 -2.428243122168902701e+00
5.047067625192588025e+01 1.150089358451395150e+01 9.884089387958749917e-01
6.162740875519028805e+01 1.255626012994635410e+01 1.540833091419740519e+01
5.056067891296059003e+01 1.116319799619170716e+01 9.835843046003874823e-01
6.181135220727379220e+01 1.175066460687237502e+01 1.645797550121074337e+01
4.990485565787798095e+01 1.242596900595808229e+01 4.412592250522306614e+01
5.928294226907115672e+01 1.086507697114437043e+01 1.166986276656762200e+01
5.991847802380687682e+01 1.026622455069626305e+01 1.140512096365681849e+01
6.037421703033757581e+01 1.028659101803742359e+01 1.318981525124344856e+01
5.844909971529409631e+01 9.902844055972737536e+00 6.610971342897906666e+00
5.860128480341554535e+01 9.150446038235957147e+00 6.410903811087680815e+00
5.801911516841841632e+01 8.594944941870306110e+00 -3.339230586061349371e+00
5.878299698239807469e+01 9.062228386336077079e+00 1.097100849178885440e+01
5.980772354897855791e+01 8.870471802877430534e+00 1.198564356604877368e+01
6.331268660301888218e+01 8.970204865991906473e+00 1.695155106884041274e+01
5.279807302727792973e+01 8.887094734761671333e+00 4.083180776489510322e+01
5.291119726552339841e+01 8.448683537748330252e+00 4.166405019980743418e+01
5.172249883007923188e+01 8.446522385452798432e+00 4.202443934214864640e+01
5.263457888184463229e+01 8.019068399126327407e+00 4.147091939576230146e+01
5.131933868893032979e+01 8.039801224461420759e+00 4.338454985593608626e+01
5.846473054623158561e+01 6.636041162962072804e+00 9.247140642288695034e+00
6.224350892626353016e+01 6.333840016460428934e+00 1.638687137102192892e+01
6.214030029425238411e+01 5.993141483766899924e+00 1.613897367169868957e+01
6.294568919763393922e+01 5.699164514420918870e+00 1.701363386090993757e+01
6.042122464764901224e+01 5.660457499046395391e+00 1.238665705579139953e+01
6.349911483552535429e+01 5.565082927603311802e+00 1.675154499495496907e+01
6.025656307053257876e+01 5.409082446107497333e+00 1.273397071568047245e+01
5.995616088506788799e+01 5.423258132886688010e+00 1.332613028096989893e+01
5.610985177424630166e+01 6.370362363132193728e+00 3.937108381172461691e+01
5.510222781666011826e+01 6.315966585406405542e+00 4.019997657939146052e+01
5.267819437850613440e+01 6.264252007065236327e+00 4.194070693337184252e+01
5.842181967309019086e+01 4.684958803102315272e+00 -3.333902937993642457e+00
5.274072392368304207e+01 6.012120816127942469e+00 4.206859253050317449e+01
5.848447049577092116e+01 4.250192578192682369e+00 -3.396390004872363200e+00
5.773733839160269099e+01 4.359405999881923677e+00 9.208953444735092475e+00
6.132212057338618649e+01 3.779310795953144009e+00 3.535541494980321175e+01
5.916398815803178479e+01 3.956734744217503152e+00 3.595434734666324061e+01
6.158252786270146117e+01 3.516378585451741756e+00 3.603444923709216141e+01
5.685936240140600972e+01 3.388192509021914045e+00 8.017746394494420059e+00
5.237660832270371003e+01 3.219878750964081160e+00 4.147398723853805791e+01
5.310141224941903459e+01 1.843503984048577626e+00 2.616470275443719129e-01
5.815344017889671591e+01 9.884596007131557505e-01 -3.474167800829512043e+00
5.349449440722493421e+01 -1.791116788787840974e-01 4.177955048636128765e+01
5.305438606094313769e+01 -2.306546365775975216e-01 4.264398806015528010e+01
5.301123367536106201e+01 -1.714324073346989108e+00 4.122205463891177146e+01
5.556435428202946980e+01 -5.058406908650831646e+00 4.055399721817510539e+01
5.257689737146238684e+01 -4.434083938240295453e+00 4.255381960218807080e+01
5.317259529732127987e+01 -4.677694900239997899e+00 4.162685434336204793e+01
6.170630615647787920e+01 1.589111959504146654e+01 1.746616017794730524e+01
5.951152277294364268e+01 1.355929487162308078e+01 1.177152943747003810e+01
6.244499406049044410e+01 1.340073901382876009e+01 1.523246623744467598e+01
6.729673209592638727e+01 1.391654513690993156e+01 1.964302264101759476e+01
5.378273637846703537e+01 1.436928009782093518e+01 1.285993743855407523e+01
6.532226241930624155e+01 1.363136022667402969e+01 1.632116081146837772e+01
6.139505943102304286e+01 6.668961131688006638e+00 1.455080760196146805e+01
6.192632396515182336e+01 5.574705120859533736e+00 1.519049361856285785e+01
5.707562333821253731e+01 4.630093673396033616e+00 9.805157697875214851e+00
6.316013485753084211e+01 2.992271660629538488e+01 2.726488775521419328e+01
5.796263698756789751e+01 2.654341994203377553e+01 2.364450087945770207e+01
5.886015156648671365e+01 1.565543427309060753e+01 1.095970355718701938e+01
6.751985552839546756e+01 1.560920747697199573e+01 2.437552638331741406e+01
5.958795232774179595e+01 1.393788153115966288e+01 1.220191158724516711e+01
5.769804899928423225e+01 1.188957299333030448e+01 9.276796495985838220e+00
6.143210145866599703e+01 1.140941702276136738e+01 1.436163637070483645e+01
5.703228088449302646e+01 6.533024235566268878e+00 8.210869532667667059e+00
5.692999609836461161e+01 6.413237281209906548e+00 9.170747835947581805e+00
6.143894558604373657e+01 5.560325272165896671e+00 1.480952216435032476e+01
6.287857150743327850e+01 5.418179795641584029e+00 1.659020931701281754e+01
5.729384855889365724e+01 3.871414328479497513e+00 8.710496319684157385e+00
5.394460553953426540e+01 -1.817363194252386682e+00 4.169420535254214144e+01
7.844199974860404723e+01 -4.937175768939521703e+00 2.171497357439694298e+01
6.683194600809639496e+01 2.086539066613478965e+01 2.628889607983698795e+01
6.317862386913537875e+01 1.623199415325308692e+01 2.419862235228283609e+01
6.383510852188319973e+01 1.593442015202824358e+01 1.616352619680184333e+01
5.868121786010869556e+01 1.468251002777637026e+01 1.176123781478381325e+01
5.767935261789266832e+01 1.385596808638158350e+01 1.190330185592925183e+01
6.360926197278865146e+01 1.332155798434083671e+01 1.705193881173695303e+01
6.461940889662649568e+01 1.247856570917802088e+01 1.755829879301177243e+01
5.599581468559287600e+01 7.315497653476455753e+00 9.013644367066863339e+00
6.008925461714056837e+01 4.932155079561145961e+00 1.246543636435506741e+01
5.860151860470810448e+01 3.773358825293991803e+00 8.881884427252568770e+00
5.841194621409740506e+01 3.060880629400888342e+00 9.809048093756882025e+00
7.310328790800124921e+01 8.827338307546694907e-01 2.426032589771824988e+01
6.015669109821464389e+01 2.575109422218385014e+00 1.140135771642673035e+01
6.641557092053625411e+01 1.577014424760568856e+00 1.913325016511307908e+01
6.474141352837561669e+01 1.783226056045036145e+01 2.598288672240328623e+01
5.838739049926394387e+01 1.572639335245562187e+01 1.107804980602458222e+01
6.293754550230894296e+01 1.653326333835602924e+01 1.853481962639406433e+01
5.105954093321189191e+01 1.391279049662013456e+01 8.719682969291993047e+00
5.795860542996521758e+01 1.481455775836872668e+01 9.605559710251959871e+00
6.218170667187216338e+01 1.496771731351642032e+01 1.884855499186973660e+01
6.547606995267800301e+01 1.541517635152247756e+01 2.262417276818869283e+01
6.348149463279072791e+01 1.152019434079950244e+01 1.635896483780525301e+01
5.668908834951271558e+01 6.480919325054528279e+00 8.193675551079500963e+00
6.296174143214904717e+01 4.339608871021184200e+00 1.663880007527724914e+01
5.920135401629192984e+01 4.171732517376147698e+00 9.702967596428511143e+00
5.803971698079131869e+01 3.831625445953963816e+00 1.048961557609668205e+01
6.088721549152053569e+01 2.615320472664118601e+00 1.155759418635009439e+01
5.318757639375970570e+01 -1.696680988589013062e+00 4.109114633301629738e+01
5.759457876974019541e+01 -3.308443873689011383e+00 3.684855659857120003e+01
5.521962323290212282e+01 -4.587507316924816614e+00 4.001969850795391892e+01
5.215330992599505322e+01 -4.495970504853842975e+00 4.228874477305647872e+01
6.915319169049952563e+01 2.695845535975063356e+01 2.747757174185720430e+01
6.683628830202658833e+01 2.679026976838669682e+01 2.902372702592534637e+01
5.701810159732252714e+01 1.792500292172702814e+01 3.667477614287322041e+01
6.481853350274451486e+01 1.677188278230252649e+01 1.909062795495499643e+01
6.561054584068828888e+01 1.660721616788848820e+01 2.058171262964860659e+01
5.743592826239071769e+01 1.476209518734171411e+01 9.401943158640264642e+00
6.446711785945943518e+01 1.600113368916326095e+01 2.065772652439536827e+01
5.757607158578098705e+01 1.460260224998327949e+01 8.951033238740928155e+00
5.810949112586483523e+01 1.415584511169967641e+01 1.092098347123725510e+01
6.778139760104605216e+01 1.546683713353865919e+01 2.169197833596276581e+01
5.738567261948978171e+01 1.349532835680022025e+01 8.684141866185520087e+00
7.000818262757978516e+01 1.497993015537643657e+01 2.741703898708923859e+01
6.153389108398302909e+01 1.294839122535110221e+01 1.453241635101157847e+01
6.210453489153925233e+01 1.271094977444103691e+01 1.564049147088556069e+01
6.307171465818705514e+01 1.215378937771472501e+01 1.435012467310376394e+01
5.959941394180941643e+01 1.078350032004691705e+01 1.229720542276437456e+01
6.282443898508884672e+01 1.063803596638613236e+01 1.658352357830214530e+01
6.455887985210841862e+01 6.783423057710121995e+00 1.717446499986837694e+01
5.907680589143642891e+01 6.455773761971093982e+00 9.300483465268220229e+00
5.713776910805565024e+01 6.247102363244396273e+00 9.761211284985950698e+00
6.006742401900746842e+01 6.100541325030732764e+00 1.290606312937822686e+01
5.851877869495763207e+01 6.095508840308521137e+00 1.035927689177429656e+01
5.641390393331885633e+01 5.736570833797975055e+00 8.606621754889493658e+00
5.804716989871101163e+01 5.118378520561560840e+00 9.553237272788280166e+00
6.570023037663372634e+01 3.707668237398472844e+00 3.116238745629228646e+01
6.305646076161536229e+01 3.662900877857458770e+00 1.506595773680691508e+01
6.011917383558168382e+01 2.899215917820003430e+00 5.565079533394164280e+00
6.825621773618470911e+01 8.732651900995792582e-01 2.561451382470600890e+01
7.014519632222847179e+01 -2.258502839811636631e-01 3.232360540755584566e+01
5.869643843491263624e+01 -1.626556806104979769e+00 3.760771171407264291e+01
5.306774854431018440e+01 -4.553328226043044324e+00 4.311879785308083513e+01
6.451531311966755311e+01 1.691065558287894177e+01 2.244879057691153434e+01
6.224088270513423993e+01 1.645689811949117143e+01 2.404225622287972897e+01
6.517765463574949081e+01 1.630575220067482789e+01 2.427114620902591824e+01
5.709774603242567537e+01 1.341367732181782202e+01 9.208063571055369323e+00
5.819402180446706296e+01 5.122346758707061021e+00 3.379661666410851240e+01
6.379649334126190752e+01 4.321886842314523136e+00 1.764865467120466391e+01
6.261036313213826787e+01 9.202941626404809838e+00 1.701304199393077710e+01
6.136828201316345854e+01 1.071428620146458677e+01 1.435258682575106981e+01
6.083186311945363656e+01 1.283426611699340647e+01 1.284417692271794031e+01
6.042110257270840634e+01 1.394021051132658329e+01 1.325290400809338642e+01
5.950477350609578764e+01 1.292672820952188850e+01 1.303764334858649754e+01
5.176741113891363000e+01 1.580485002105247183e+01 4.487276294428750134e+01
6.748549561706555266e+01 1.547516935978267227e+01 2.130662714797156454e+01
5.219219968933813902e+01 1.590690984119785867e+01 3.959295103140043892e+01
6.267735383544692240e+01 1.543705005094293625e+01 1.712820416150985992e+01
5.824624897842551974e+01 1.035350637875493440e+01 6.416372660987168963e+00
6.309141014081955490e+01 1.623516173776519267e+01 2.121121652908396626e+01
6.332324689639922610e+01 9.889403091233200271e+00 1.716129890728850071e+01
5.843745760688072011e+01 1.539559881470298563e+01 1.087130819410579008e+01
6.286575822628379484e+01 7.192213407130745750e+00 1.662346974985258541e+01
6.387076264767213019e+01 6.780334369316718401e+00 1.749629246900714818e+01
5.871677339740336521e+01 6.696642725131541241e+00 9.642470773052949085e+00
5.976397450601024275e+01 6.071275586130634672e+00 1.057838610536010648e+01
6.346412484745956561e+01 5.265626225547623385e+00 1.631412567370124478e+01
6.024805243071983085e+01 5.006940622116277773e+00 1.282867581680007518e+01
6.122680629570459843e+01 3.055996496704364240e+00 3.541525326167583643e+01
5.750826623800678306e+01 3.699686188345627347e+00 8.458572794600089040e+00
5.757980249814209373e+01 3.099980600658744478e+00 8.977965289449441499e+00
6.834529066888975990e+01 8.521366178278956260e-01 2.487720604218012355e+01
6.376704448472844433e+01 3.704478907931731158e+01 2.522980334565204430e+01
5.220957175573869335e+01 -4.380488653081883399e+00 4.238577352091649431e+01
5.862759999791227017e+01 1.853326058996134407e+01 3.767765951068714969e+01
5.252494445853179172e+01 -1.870835446676033798e-01 4.226557660777263692e+01
5.284757513898165371e+01 -8.260257732869569214e-02 4.130350851202715035e+01
6.025217689180540503e+01 5.679300611067763072e+00 3.471454167201758878e+01
5.353368288579319767e+01 6.158654411583616373e+00 4.267095016131997909e+01
5.120110865397266764e+01 1.557591312480443158e+01 4.315062094674321003e+01
6.426931084388566262e+01 1.522694649030466785e+01 2.327677464022353249e+01
5.550091008256892167e+01 9.758598140453880632e+00 1.096997881314904610e+01
6.221634827319753214e+01 1.486302824874553075e+01 1.600311323800723429e+01
4.940197808363210896e+01 1.530271429054976196e+01 3.936185165519263762e+01
5.285058978333554336e+01 8.006880300706827214e+00 4.300978299374944669e+01
5.688707342414301849e+01 6.631071339431905187e+00 4.077392874331818717e+01
6.516436205133392434e+01 6.064073000182179207e+00 1.766211537097178308e+01
5.330504912246745164e+01 1.622240892287119252e+01 4.051816619178978840e+01
5.904784546579657700e+01 5.952430600447597087e+00 1.115318942993238771e+01
6.012056532160597300e+01 5.810308471416130160e+00 1.308788953688504897e+01
6.261469445607268369e+01 5.487150349087893453e+00 1.536584526506761073e+01
5.889956617543196415e+01 1.482848869298040739e+01 1.072081841202238195e+01
6.103510972514393984e+01 1.540107858837194321e+01 1.422548853299222671e+01
6.474311267711917139e+01 1.688806732830595791e+01 2.600660932723685548e+01
